# .PCD v0.7 - Point Cloud Data file format
VERSION 0.7
FIELDS x y z rgba label
SIZE 4 4 4 4 4
TYPE F F F U U
COUNT 1 1 1 1 1
WIDTH 1043
HEIGHT 1
VIEWPOINT 0 0 0 1 0 0 0
POINTS 1043
DATA ascii
nan nan nan 4278190080 8391
nan nan nan 4278190080 12487
nan nan nan 4278190080 16583
nan nan nan 4278190080 20679
nan nan nan 4278190080 24775
nan nan nan 4278190080 28871
nan nan nan 4278190080 32967
nan nan nan 4278190080 37063
nan nan nan 4278190080 41159
nan nan nan 4278190080 45255
nan nan nan 4278190080 49351
nan nan nan 4278190080 53447
nan nan nan 4278190080 57543
nan nan nan 4278190080 61639
nan nan nan 4278190080 65735
nan nan nan 4278190080 69831
nan nan nan 4278190080 73927
nan nan nan 4278190080 78023
nan nan nan 4278190080 82119
nan nan nan 4278190080 86215
nan nan nan 4278190080 90311
nan nan nan 4278190080 94407
nan nan nan 4278190080 98503
nan nan nan 4278190080 102599
4.1164098 2.451345 3.7221725 4293000989 106695
3.8701584 2.3220952 3.5513091 4294442759 110791
4.198266 2.5381153 3.9093556 4292083499 114887
4.0707965 2.4799104 3.846334 4292738849 118983
4.1139164 2.5255315 3.9430537 4292214569 123079
4.1716342 2.5808945 4.05582 4291624754 127175
4.0618978 2.5327127 4.0045519 4292214569 131271
4.2103472 2.6460285 4.209125 4290969404 135367
3.9912059 2.5282938 4.0470786 4292280104 139463
4.1859722 2.6729703 4.3054843 4290707264 143559
4.1187615 2.6513486 4.295507 4290969404 147655
4.0887451 2.6535122 4.3227606 4290969404 151751
3.857841 2.5242662 4.1350203 4292411174 155847
4.0276041 2.6572161 4.3775373 4290969404 159943
3.7451303 2.4915302 4.1276264 4292804384 164039
3.8722866 2.5978632 4.3265257 4291690289 168135
3.6525931 2.471329 4.1373062 4293066524 172231
3.8001101 2.5932081 4.3637958 4291755824 176327
3.8067672 2.6202424 4.4318466 4291493684 180423
3.5496802 2.4646251 4.1897202 4293197594 184519
3.4716504 2.4316847 4.1543684 4293525269 188615
3.4998913 2.4732566 4.2462749 4293132059 192711
3.2052896 2.2853858 3.9419756 4294966272 196807
3.4502144 2.482281 4.3012223 4293066524 200903
3.4675477 2.5175345 4.3820972 4292673314 204999
3.4974382 2.562639 4.4806285 4292214569 209095
3.4216428 2.5304241 4.4439535 4292607779 213191
3.2374108 2.4166586 4.262753 4293852944 217287
3.3235154 2.5044501 4.4367628 4292869919 221383
3.2907147 2.5034623 4.4535155 4292935454 225479
3.2945709 2.5306125 4.5198588 4292673314 229575
3.3381383 2.5890927 4.6426458 4292017964 233671
3.1473539 2.465169 4.4377737 4293394199 237767
3.2256799 2.5516572 4.6112986 4292476709 241863
3.0474582 2.4349039 4.4172039 4293721874 245959
3.1249855 2.5221963 4.5929503 4292804384 250055
3.1405082 2.5607221 4.6806402 4292411174 254151
3.0184317 2.4866872 4.5621858 4293197594 258247
2.8841512 2.4009428 4.4210343 4294180619 262343
2.9114065 2.4492786 4.526402 4293656339 266439
2.8062088 2.3860278 4.424377 4294377224 270535
2.8694127 2.4661438 4.588182 4293525269 274631
2.8466036 2.4732785 4.6166291 4293459734 278727
3.0598547 2.6879387 5.0336766 4291166009 282823
2.7909689 2.4791288 4.6576147 4293394199 286919
2.7731581 2.4911418 4.695086 4293263129 291015
2.5783987 2.3426595 4.429112 4294901504 295111
2.7781785 2.5533547 4.8424606 4292673314 299207
2.6121061 2.4288003 4.6204329 4293984014 303303
2.6613808 2.5039027 4.7778392 4293197594 307399
2.615181 2.489903 4.7654648 4293328664 311495
2.5479183 2.4552667 4.7124543 4293721874 315591
2.5516272 2.4890106 4.7902884 4293394199 319687
2.422724 2.3926282 4.6172404 4294442759 323783
2.398773 2.398773 4.6414199 4294377224 327879
2.4471865 2.4783609 4.8080115 4293525269 331975
2.407321 2.4694455 4.8031464 4293656339 336071
2.2269082 2.3142381 4.5128374 4294966016 340167
2.2876127 2.4088109 4.7092066 4294311689 344263
2.3365703 2.493387 4.8868017 4293459734 348359
2.1846457 2.3629839 4.6427183 4294835969 352455
2.268662 2.487705 4.8997469 4293525269 356551
2.0453944 2.2742496 4.4901714 4294964736 360647
1.9587957 2.2088547 4.3714647 4294962944 364743
2.1345119 2.4416358 4.843502 4294049549 368839
2.0329735 2.3594365 4.6912942 4294901504 372935
2.0387924 2.4012442 4.7852683 4294442759 377031
1.987669 2.376236 4.7452674 4294770434 381127
1.9786054 2.4015133 4.8055677 4294508294 385223
1.8190928 2.2421377 4.4957056 4294963712 389319
1.9055632 2.3857052 4.7930918 4294704899 393415
1.9158483 2.436959 4.9056668 4294115084 397511
1.7701583 2.2882535 4.6152186 4294964736 401607
1.7400419 2.2865012 4.6204596 4294964736 405703
1.7911315 2.3931925 4.8450723 4294639364 409799
1.6576214 2.2526648 4.568943 4294963712 413895
1.6845484 2.3290713 4.732451 4294965760 417991
1.7053748 2.3995984 4.8844481 4294573829 422087
1.6803545 2.4069943 4.9081306 4294508294 426183
1.6961131 2.4741466 5.0538034 4293787409 430279
1.5526286 2.3071771 4.7207751 4294965248 434375
1.5874931 2.403918 4.9265499 4294573829 438471
1.538154 2.3744318 4.8733335 4294901504 442567
1.5334394 2.4140284 4.9618101 4294508294 446663
1.500425 2.4097736 4.960135 4294508294 450759
1.4113516 2.3134525 4.7687788 4294965248 454855
1.4127744 2.3645384 4.8815007 4294966784 458951
1.36207 2.3287003 4.8146944 4294965760 463047
1.4272159 2.4937069 5.1634059 4293656339 467143
1.353559 2.4181559 5.014164 4294442759 471239
1.3267308 2.424715 5.0341425 4294442759 475335
1.3010836 2.4337916 5.0592499 4294311689 479431
1.2597629 2.4132807 5.0226927 4294573829 483527
1.150493 2.2583752 4.7058616 4294963712 487623
1.1383049 2.2910187 4.7794075 4294964480 491719
1.1940753 2.4656882 5.1496072 4293984014 495815
1.1166419 2.3672807 4.9495349 4294966528 499911
1.1224252 2.4447343 5.1169715 4294246154 504007
1.0741349 2.4054573 5.0400376 4294639364 508103
1.0124977 2.3331468 4.8935161 4294965504 512199
1.0143572 2.4072058 5.0538263 4294639364 516295
0.94549972 2.3128378 4.8603535 4294964992 520391
0.93836719 2.3682599 4.9814491 4294966528 524487
0.94185942 2.4550107 5.1685805 4294180619 528583
0.87938321 2.3698633 4.9936805 4294966528 532679
0.85243249 2.3778381 5.0147252 4294966784 536775
0.83147383 2.4037151 5.0731087 4294704899 540871
0.79180425 2.3754127 5.0168624 4294966784 544967
0.77512646 2.4165707 5.1072083 4294573829 549063
0.74147731 2.4060183 5.0881839 4294704899 553159
0.69305009 2.3445737 4.9613118 4294965760 557255
0.68479413 2.419606 5.1231251 4294573829 561351
0.61547816 2.2758379 4.821456 4294963968 565447
0.60269308 2.3372731 4.9542947 4294965504 569543
0.57917786 2.3612635 5.0080414 4294966272 573639
0.55129892 2.3690953 5.0274925 4294966528 577735
0.49819395 2.2632239 4.8053975 4294963456 581831
0.47874114 2.3066618 4.9001107 4294964736 585927
0.43801039 2.2465694 4.7747355 4294962944 590023
0.41581365 2.2798059 4.8475471 4294963968 594119
0.37534192 2.2103469 4.7018256 4294962176 598215
0.37091011 2.3589883 5.019968 4294966016 602311
0.33707947 2.330245 4.9605865 4294965248 606407
0.3096875 2.3447769 4.9931693 4294965760 610503
0.26965567 2.2565923 4.8068252 4294963200 614599
0.22721197 2.1251001 4.5279546 4294959616 618695
0.20056748 2.1260154 4.5309944 4294959872 622791
0.16237772 1.9860044 4.2334929 4294956032 626887
0.14074734 2.0344388 4.337522 4294957312 630983
0.11539939 2.0387225 4.3473096 4294957312 635079
0.089569576 2.0345089 4.3388476 4294957312 639175
0.065287143 2.0761313 4.4280128 4294958336 643271
0.038467783 2.0387926 4.3486381 4294957312 647367
0.012689157 2.017576 4.3035145 4294956800 651463
-0.012491599 1.9861641 4.2365122 4294956032 655559
-0.03769891 1.9980421 4.2617197 4294956288 659655
-0.062163614 1.9768029 4.2161636 4294955776 663751
-0.090167582 2.0480921 4.3678155 4294957568 667847
-0.10833559 1.9139287 4.0812035 4294953984 671943
-0.13493304 1.9503957 4.1583381 4294955008 676039
-0.15495117 1.895172 4.0398688 4294953472 680135
-0.18350984 1.9452044 4.1456475 4294954752 684231
-0.20134601 1.8831774 4.0124893 4294953216 688327
-0.23070598 1.9306448 4.1125159 4294954496 692423
-0.23928614 1.811738 3.8580706 4294951168 696519
-0.27630571 1.9101133 4.0662174 4294953984 700615
-0.28990903 1.8438215 3.9236846 4294951936 704711
-0.31870559 1.8768218 3.9923546 4294952960 708807
-0.33919808 1.8597412 3.9543643 4294952448 712903
-0.35859776 1.8392595 3.909061 4294951936 716999
-0.37360653 1.8001041 3.8240151 4294950912 721095
-0.40537205 1.8415474 3.9100714 4294951936 725191
-0.41428852 1.780321 3.7780459 4294950400 729287
-0.42998779 1.7530271 3.7180231 4294949632 733383
-0.43427587 1.6841429 3.5698609 4294947584 737479
-0.48176333 1.7814039 3.7739773 4294950400 741575
-0.49856663 1.761602 3.729908 4294949888 745671
-0.52238762 1.7672261 3.7395968 4294949888 749767
-0.54242653 1.7601187 3.7222526 4294949888 753863
-0.55439955 1.7284222 3.6528671 4294948864 757959
-0.55032301 1.650969 3.4868402 4294946816 762055
-0.58943069 1.7039906 3.5963199 4294948352 766151
-0.61651444 1.7197508 3.6268566 4294948864 770247
-0.62988162 1.6974775 3.5768561 4294948096 774343
-0.64398563 1.6785854 3.533958 4294947584 778439
-0.67740214 1.7096339 3.596081 4294948608 782535
-0.70190161 1.7169594 3.6081345 4294948608 786631
-0.73085779 1.7344238 3.6413488 4294949120 790727
-0.73748016 1.6994108 3.5643253 4294948352 794823
-0.79006624 1.7693032 3.707135 4294950144 798919
-0.77837789 1.695371 3.5485103 4294948096 803015
-0.79754436 1.690794 3.5351293 4294948096 807111
-0.81044823 1.6735229 3.4951646 4294947584 811207
-0.87834889 1.7678162 3.6879287 4294950144 815303
-0.85345274 1.6752962 3.4908776 4294947584 819399
-0.8751967 1.6765816 3.4894221 4294947584 823495
-0.88341838 1.6525121 3.435163 4294947072 827591
-0.92753339 1.6951473 3.5194292 4294948096 831687
-0.94623911 1.6904721 3.5052762 4294948096 835783
-0.96105808 1.6792114 3.4769323 4294947840 839879
-0.97361225 1.6645629 3.4415598 4294947328 843975
-0.99789011 1.670153 3.4479682 4294947584 848071
-0.97906882 1.6048654 3.3081501 4294945792 852167
-1.0346763 1.6617528 3.4204538 4294947328 856263
-1.0370195 1.6325357 3.3555248 4294946560 860359
-1.0730228 1.6564138 3.3996582 4294947328 864455
-1.0484074 1.5875884 3.2535775 4294945280 868551
-1.1496649 1.7083806 3.4955623 4294948608 872647
-1.0952441 1.5976496 3.2634308 4294945536 876743
-1.1144578 1.5963856 3.255209 4294945536 880839
-1.1808742 1.661584 3.3821998 4294947328 884935
-1.1843863 1.6375427 3.3273311 4294946816 889031
-1.1600565 1.5764869 3.1974926 4294945024 893127
-1.1751056 1.5700991 3.1787012 4294945024 897223
-1.1816678 1.5527701 3.1377685 4294944512 901319
-1.2443429 1.6085409 3.2442946 4294946048 905415
-1.2687584 1.6138607 3.2487466 4294946304 909511
-1.3154187 1.6468629 3.3086925 4294947072 913607
-1.3458495 1.6588378 3.3261323 4294947584 917703
-1.3516725 1.6405797 3.2828951 4294947072 921799
-1.2461952 1.4898123 2.9751077 4294942976 925895
-1.3562293 1.5973366 3.1832182 4294945792 929991
-1.359287 1.5775667 3.1366937 4294945280 934087
-1.3816286 1.5804242 3.1351061 4294945280 938183
-1.3854535 1.5623199 3.0919309 4294945024 942279
-1.4279736 1.5877469 3.1347728 4294945536 946375
-1.3734086 1.5060135 2.966222 4294943488 950471
-1.4514029 1.5698848 3.0844612 4294945280 954567
-1.4682423 1.5667821 3.0707438 4294945024 958663
-1.4675176 1.545267 3.0209851 4294944512 962759
-1.4445354 1.5011839 2.927356 4294943232 966855
-1.4489523 1.4863447 2.8909855 4294942976 970951
-1.5123341 1.5315995 2.9712977 4294944256 975047
-1.5108639 1.5108639 2.9233921 4294943744 979143
-1.5223846 1.503473 2.9013684 4294943488 983239
-1.5533688 1.5152493 2.9162116 4294943744 987335
-1.5093811 1.4544945 2.7916474 4294942208 991431
-1.5558118 1.4812819 2.8350489 4294942976 995527
-1.6773556 1.5781039 3.01127 4294945536 999623
-1.6472782 1.5316797 2.9137936 4294944256 1003719
-1.8902837 1.7373128 3.2948294 4294950144 1007815
-2.1116788 1.918611 3.6273916 4294955264 1011911
-2.2800493 2.0481799 3.86023 4294958848 1016007
-2.6357334 2.341238 4.3985548 4294901504 1020103
-2.8122311 2.4704127 4.626318 4293459734 1024199
-2.7807033 2.4160209 4.5097518 4294049549 1028295
-2.8501129 2.4495564 4.5573215 4293656339 1032391
-2.9251449 2.4871552 4.611896 4293263129 1036487
-2.8119471 2.3656063 4.3717709 4294573829 1040583
-2.9030507 2.4166758 4.4500051 4293984014 1044679
-2.9390652 2.4213026 4.4422278 4293918479 1048775
-3.0765922 2.508606 4.5853791 4293000989 1052871
-2.9836159 2.4080961 4.3851724 4294049549 1056967
-3.0784862 2.4596949 4.4621782 4293459734 1061063
-3.094126 2.4475923 4.4232349 4293590804 1065159
-3.1895084 2.4981863 4.4972115 4293000989 1069255
-3.0552182 2.369657 4.2491636 4294377224 1073351
-3.0659528 2.3550072 4.2062149 4294573829 1077447
-3.363276 2.5586646 4.5517173 4292345639 1081543
-2.9640098 2.2335429 3.9568367 4294964480 1085639
-3.1062164 2.3187249 4.0900073 4294901504 1089735
-3.0446115 2.2515965 3.9542737 4294965248 1093831
-2.9780111 2.182045 3.8151815 4294963200 1097927
-3.0737782 2.2316473 3.8844726 4294964736 1102023
-3.1535199 2.268822 3.9313469 4294965760 1106119
-3.4791574 2.480655 4.2787876 4293066524 1110215
-3.5486217 2.5076928 4.305398 4292738849 1114311
-3.677551 2.5759058 4.4007607 4292017964 1118407
-3.7773221 2.6226821 4.4584079 4291493684 1122503
-3.5784681 2.4631014 4.1660604 4293197594 1126599
-3.5364218 2.4132662 4.0609937 4293721874 1130695
-3.5764849 2.4198344 4.0510983 4293590804 1134791
-3.8223689 2.564374 4.270752 4292017964 1138887
-3.5083375 2.3339987 3.8666496 4294508294 1142983
-3.8495612 2.539752 4.1840253 4292280104 1147079
-3.9899035 2.6106775 4.2765708 4291493684 1151175
-3.6218188 2.3504865 3.8291101 4294311689 1155271
-3.9328957 2.531702 4.101665 4292280104 1159367
-3.9567087 2.5265729 4.069675 4292345639 1163463
-3.9527118 2.5039091 4.0080457 4292542244 1167559
-4.1702795 2.6208475 4.1690688 4291231544 1171655
-4.0241489 2.5091753 3.9673359 4292476709 1175751
-4.1952291 2.5954919 4.0787592 4291493684 1179847
-4.4122462 2.7086761 4.2289929 4290182984 1183943
-4.0043344 2.4394221 3.7835367 4293132059 1188039
-4.2892852 2.593142 3.9941113 4291428149 1192135
-4.2367554 2.5420532 3.8877032 4292017964 1196231
-4.3525248 2.591953 3.9356744 4291428149 1200327
-4.4501481 2.6303849 3.9651585 4290969404 1204423
-4.4123635 2.5888038 3.8738909 4291428149 1208519
-4.3306017 2.5222187 3.7462447 4292149034 1212615
-4.5383945 2.624017 3.8681695 4290969404 1216711
-4.7931643 2.7513111 4.0249758 4289527634 1220807
-4.8899832 2.7867646 4.0448451 4289134424 1224903
-4.4921875 2.5418427 3.6592643 4291821359 1228999
-4.837811 2.7180634 3.8799686 4289855309 1233095
-4.3981361 2.453697 3.4718094 4292738849 1237191
nan nan nan 4278190080 1241287
nan nan nan 4278190080 1245383
nan nan nan 4278190080 1249479
nan nan nan 4278190080 1253575
nan nan nan 4278190080 1257671
nan nan nan 4278190080 1261767
nan nan nan 4278190080 1265863
nan nan nan 4278190080 1269959
nan nan nan 4278190080 1274055
nan nan nan 4278190080 1278151
nan nan nan 4278190080 1282247
nan nan nan 4278190080 1286343
nan nan nan 4278190080 1290439
nan nan nan 4278190080 1294535
nan nan nan 4278190080 1298631
nan nan nan 4278190080 1302727
nan nan nan 4278190080 1306823
nan nan nan 4278190080 200
nan nan nan 4278190080 4296
nan nan nan 4278190080 8392
nan nan nan 4278190080 12488
nan nan nan 4278190080 16584
nan nan nan 4278190080 20680
nan nan nan 4278190080 24776
nan nan nan 4278190080 28872
nan nan nan 4278190080 32968
nan nan nan 4278190080 37064
nan nan nan 4278190080 41160
nan nan nan 4278190080 45256
nan nan nan 4278190080 49352
nan nan nan 4278190080 53448
nan nan nan 4278190080 57544
nan nan nan 4278190080 61640
nan nan nan 4278190080 65736
nan nan nan 4278190080 69832
nan nan nan 4278190080 73928
nan nan nan 4278190080 78024
nan nan nan 4278190080 82120
nan nan nan 4278190080 86216
nan nan nan 4278190080 90312
nan nan nan 4278190080 94408
nan nan nan 4278190080 98504
nan nan nan 4278190080 102600
4.2515755 2.563684 3.8277922 4292083499 106696
4.3292542 2.6302261 3.955477 4291362614 110792
4.3584471 2.6680989 4.0410905 4290969404 114888
4.6417413 2.8632963 4.3673725 4288872284 118984
4.4564023 2.7701962 4.2539997 4289920844 123080
4.2156091 2.6409068 4.0820923 4291297079 127176
4.1664867 2.6306055 4.0919833 4291493684 131272
4.1022978 2.6105533 4.0855064 4291690289 135368
3.9459975 2.5310979 3.9852297 4292607779 139464
4.0532222 2.6207581 4.1523137 4291624754 143560
3.8334901 2.4987528 3.9836009 4293000989 147656
4.0865846 2.6854699 4.3050323 4290969404 151752
4.0253491 2.6670008 4.2988253 4291166009 155848
3.7404172 2.498785 4.0502052 4293000989 159944
4.0023656 2.6961544 4.3947182 4290903869 164040
3.8972068 2.6474698 4.3389754 4291493684 168136
3.8018303 2.6046581 4.2911596 4291952429 172232
3.7348928 2.5807629 4.2738113 4292214569 176328
3.689805 2.5716822 4.2805924 4292345639 180424
3.6059287 2.5351725 4.2412105 4292738849 184520
3.7064183 2.6287813 4.4198294 4291755824 188616
3.5645838 2.5506577 4.3096981 4292607779 192712
3.4728792 2.5073254 4.2569885 4293066524 196808
3.3231254 2.4209194 4.1291542 4294049549 200904
3.3358922 2.452414 4.2018676 4293721874 205000
3.3568268 2.4905491 4.2863793 4293328664 209096
3.3968122 2.5436592 4.3972473 4292804384 213192
3.2172947 2.4318519 4.2224436 4293984014 217288
3.5176556 2.684088 4.680625 4291297079 221384
3.5100155 2.7038877 4.7353992 4291100474 225480
3.2693622 2.5428374 4.4714956 4292869919 229576
3.1473138 2.4717929 4.3638167 4293590804 233672
3.0847921 2.4465594 4.3362255 4293918479 237768
3.2680447 2.6176877 4.6575494 4292083499 241864
3.0760882 2.4886944 4.4450517 4293459734 245960
2.9823287 2.4373345 4.3698673 4294049549 250056
3.0195255 2.4930441 4.4865603 4293459734 254152
3.0673978 2.5588138 4.6220584 4292804384 258248
3.0947812 2.60869 4.7294493 4292280104 262344
2.9289739 2.4950519 4.5398493 4293459734 266440
3.0260334 2.6053014 4.7573152 4292345639 270536
2.7551937 2.397763 4.3929501 4294573829 274632
2.944557 2.5905664 4.7618389 4292542244 278728
2.8893583 2.5700922 4.7396121 4292738849 282824
2.9271324 2.6327839 4.8708844 4292083499 286920
2.8967848 2.6349287 4.8903999 4292083499 291016
2.7062674 2.4897661 4.6355228 4293656339 295112
2.6404021 2.4572527 4.5892 4293984014 299208
2.6173158 2.4642563 4.6164165 4293918479 303304
2.6771526 2.5504234 4.7923903 4293000989 307400
2.5328705 2.4418693 4.6022487 4294180619 311496
2.6080985 2.5448718 4.8106833 4293132059 315592
2.5290251 2.4979939 4.735219 4293590804 319688
2.4815013 2.4815013 4.7166667 4293787409 323784
2.4810433 2.5122514 4.7878618 4293525269 327880
2.4476895 2.510051 4.7962422 4293525269 331976
2.3109946 2.4004524 4.5987144 4294704899 336072
2.3247797 2.446337 4.6986232 4294246154 340168
2.3136096 2.4668288 4.7500029 4294049549 344264
2.2494197 2.4305809 4.6919546 4294442759 348360
2.2633853 2.478946 4.7971802 4293918479 352456
2.1853628 2.4265063 4.7071962 4294442759 356552
2.1808324 2.4553428 4.7746506 4294180619 360648
2.246099 2.5646944 4.9991984 4293066524 364744
2.2296174 2.5825064 5.0457654 4292869919 368840
2.0120237 2.364495 4.6305017 4294966272 372936
2.118448 2.5264456 4.9589591 4293459734 377032
2.0308883 2.4584436 4.8363619 4294180619 381128
2.0536444 2.5239446 4.9754672 4293525269 385224
1.8148243 2.2650132 4.4740381 4294963456 389320
1.9207602 2.4349794 4.8193274 4294442759 393416
1.8628299 2.3993249 4.7580595 4294835969 397512
1.8824033 2.4639587 4.8956604 4294180619 401608
1.8057623 2.4027085 4.7830343 4294835969 405704
1.9186505 2.5958211 5.1771317 4292804384 409800
1.8134062 2.4953709 4.9859252 4293852944 413896
1.8304113 2.5625758 5.1294403 4293197594 417992
1.6520627 2.3538237 4.7199502 4294965760 422088
1.8065683 2.6203377 5.2635484 4292607779 426184
1.6019866 2.3662372 4.7613411 4294966016 430280
1.58207 2.3804977 4.7981777 4294966528 434376
1.5378745 2.3580742 4.7609234 4294965760 438472
1.6126145 2.5206888 5.0976 4293656339 442568
1.5368915 2.4498963 4.9616551 4294442759 446664
1.476006 2.4003735 4.868289 4294966784 450760
1.4883275 2.4703169 5.017149 4294246154 454856
1.4228303 2.4113231 4.904048 4294835969 458952
1.4168895 2.4528947 4.9957762 4294442759 463048
1.4059986 2.487536 5.0737228 4294049549 467144
1.3583397 2.4572213 5.0190616 4294377224 471240
1.3178817 2.4388385 4.9884973 4294573829 475336
1.278788 2.4221749 4.9611149 4294770434 479432
1.2701782 2.4638398 5.0525546 4294311689 483528
1.2596718 2.503792 5.140552 4293918479 487624
1.1730331 2.3906116 4.913847 4294966528 491720
1.1366415 2.3766141 4.8905802 4294966016 495816
1.1575978 2.4849765 5.1191902 4294115084 499912
1.109113 2.446126 5.0445576 4294508294 504008
1.1000907 2.4945719 5.1498389 4294049549 508104
1.0260028 2.3940065 4.9472551 4294966528 512200
1.0288868 2.4723995 5.1143093 4294311689 516296
1.0073452 2.4951167 5.1662631 4294049549 520392
0.93561476 2.3910155 4.9553232 4294966272 524488
0.94438022 2.4925444 5.1703825 4294115084 528584
0.87273139 2.3815212 4.9443851 4294966016 532680
0.87757289 2.4787586 5.1506028 4294246154 536776
0.81937325 2.3985291 4.9879565 4294966528 540872
0.79674548 2.4203024 5.0371976 4294835969 544968
0.7901451 2.4943795 5.1953087 4294115084 549064
0.72953045 2.3970287 4.9958944 4294966528 553160
0.71090448 2.435226 5.0786433 4294704899 557256
0.66278714 2.371305 4.9482679 4294965760 561352
0.64444011 2.4129038 5.0379281 4294966784 565448
0.60451055 2.3738096 4.9589872 4294965760 569544
0.56637633 2.3381176 4.8869452 4294964736 573640
0.54648644 2.3779545 4.9726458 4294966016 577736
0.5382995 2.4761777 5.1804504 4294311689 581832
0.49334612 2.4069312 5.0377889 4294966784 585928
0.47440958 2.4638691 5.1592107 4294442759 590024
0.44305825 2.4597373 5.1528559 4294508294 594120
0.41555309 2.4779277 5.1931252 4294311689 598216
0.37692243 2.4273803 5.0891604 4294835969 602312
0.35451874 2.4816313 5.2047625 4294246154 606408
0.31597355 2.4224639 5.0823374 4294901504 610504
0.27940339 2.3675761 4.9686656 4294965504 614600
0.23784433 2.2525258 4.7284889 4294962432 618696
0.20290467 2.1778436 4.5728097 4294960384 622792
0.16732149 2.0722122 4.3519268 4294957568 626888
0.13823666 2.0232818 4.2499294 4294956288 630984
0.10940612 1.957154 4.1116424 4294954496 635080
0.087299481 2.0078881 4.2187314 4294955776 639176
0.062998056 2.0285375 4.2625003 4294956288 643272
0.038439669 2.0629289 4.3350258 4294957312 647368
0.013058811 2.1024687 4.4182467 4294958336 651464
-0.013010772 2.0947342 4.4019933 4294958080 655560
-0.038567774 2.069804 4.3494725 4294957568 659656
-0.062704481 2.0190845 4.2426367 4294956032 663752
-0.089541279 2.0594494 4.3270659 4294957312 667848
-0.11536282 2.0637126 4.3355036 4294957312 671944
-0.13870634 2.0301566 4.26437 4294956544 676040
-0.15795453 1.9562062 4.1082983 4294954496 680136
-0.18297046 1.9638829 4.1235576 4294954752 684232
-0.208902 1.9784248 4.1530976 4294955008 688328
-0.23367269 1.9800686 4.1554308 4294955008 692424
-0.2590434 1.9859993 4.1666331 4294955264 696520
-0.27339122 1.9137385 4.0137124 4294953216 700616
-0.29808286 1.9196537 4.0246787 4294953472 704712
-0.32018262 1.909237 4.0012898 4294953216 708808
-0.35285291 1.9589421 4.1037498 4294954496 712904
-0.35797787 1.8591754 3.8930142 4294951936 717000
-0.3868432 1.887326 3.9502378 4294952704 721096
-0.40799499 1.8767769 3.9264348 4294952448 725192
-0.42039695 1.8292948 3.8253193 4294951168 729288
-0.45366254 1.872812 3.9144008 4294952192 733384
-0.47597963 1.8690908 3.9046085 4294952192 737480
-0.46909007 1.7563604 3.6671245 4294949120 741576
-0.49706036 1.7783716 3.7109771 4294949632 745672
-0.5160538 1.7677587 3.686646 4294949376 749768
-0.53425801 1.7554193 3.6586502 4294949120 753864
-0.58204776 1.8374448 3.8270409 4294951424 757960
-0.59971154 1.8217652 3.7915061 4294950912 762056
-0.60292399 1.764923 3.6703157 4294949376 766152
-0.6356827 1.7955247 3.7309141 4294950144 770248
-0.63432825 1.7309635 3.5937326 4294948608 774344
-0.68657106 1.8120974 3.7589047 4294950656 778440
-0.68850923 1.7595235 3.6465712 4294949376 782536
-0.72788262 1.8029093 3.7330132 4294950400 786632
-0.73588663 1.7683246 3.6578875 4294949632 790728
-0.76505196 1.7851212 3.6889834 4294949888 794824
-0.78443056 1.7787791 3.6721435 4294949888 798920
-0.80752742 1.7809851 3.6728616 4294949888 803016
-0.81113577 1.7412381 3.5870476 4294948864 807112
-0.81948686 1.7134725 3.5259719 4294948096 811208
-0.8569501 1.7464426 3.5897722 4294949120 815304
-0.88704127 1.7631315 3.6198969 4294949376 819400
-0.90563291 1.7567096 3.6024549 4294949376 823496
-0.92315537 1.748565 3.5814223 4294949120 827592
-0.93131542 1.7234687 3.5252512 4294948352 831688
-0.9724021 1.7590644 3.5930231 4294949376 835784
-0.96171939 1.7015036 3.4704857 4294947840 839880
-1.0038871 1.7379121 3.5395811 4294948864 843976
-1.0312811 1.7477502 3.5545011 4294949120 848072
-1.0331107 1.7147508 3.482614 4294948352 852168
-1.0388458 1.6894361 3.42641 4294947584 856264
-1.0840932 1.7281089 3.4998546 4294948608 860360
-1.0587983 1.6550149 3.3469439 4294946560 864456
-1.1163561 1.7117461 3.4559946 4294948096 868552
-1.1503645 1.7309223 3.4888809 4294948864 872648
-1.1629044 1.7176845 3.4563239 4294948352 876744
-1.1915538 1.7282897 3.4716659 4294948608 880840
-1.2186465 1.7363017 3.4816787 4294948864 884936
-1.1893568 1.6650996 3.3329859 4294947072 889032
-1.2306913 1.6935154 3.3837619 4294947840 893128
-1.2098097 1.6368012 3.2644527 4294946304 897224
-1.2840763 1.7085644 3.4012122 4294948352 901320
-1.2925078 1.6918191 3.3614898 4294947840 905416
-1.3519955 1.7413701 3.4532807 4294949120 909512
-1.3556926 1.718634 3.4015319 4294948608 913608
-1.3894483 1.7341176 3.4253697 4294949120 917704
-1.3185468 1.6205041 3.1945093 4294945792 921800
-1.3339427 1.6147727 3.1766541 4294945792 925896
-1.3820606 1.6482352 3.2351899 4294946816 929992
-1.4208677 1.6697788 3.2700064 4294947328 934088
-1.3767182 1.5946161 3.1156006 4294945280 938184
-1.437637 1.6415571 3.1997843 4294946560 942280
-1.504191 1.6935298 3.2932317 4294948096 946376
-1.3835418 1.5362085 2.9801013 4294943744 950472
-1.3982348 1.5314001 2.9635186 4294943488 954568
-1.4637091 1.5815917 3.0530791 4294945024 958664
-1.4557766 1.5521857 2.9888117 4294944256 962760
-1.4937263 1.5718297 3.0189769 4294944768 966856
-1.5052595 1.5635276 2.9953592 4294944512 970952
-1.5132744 1.5518292 2.9652581 4294944256 975048
-1.5493487 1.5688374 2.9898984 4294944768 979144
-1.5731511 1.5731511 2.9901371 4294944768 983240
-1.571404 1.552123 2.9422176 4294944256 987336
-1.5769596 1.5387303 2.9087296 4294944000 991432
-1.6068184 1.5490885 2.9196036 4294944256 995528
-1.6784725 1.5990181 3.0046458 4294945536 999624
-1.8255452 1.7187881 3.2198932 4294948864 1003720
-2.1292398 1.9815468 3.7007647 4294956288 1007816
-2.4894733 2.2903154 4.2641797 4294964736 1011912
-2.6193593 2.382581 4.4220457 4294770434 1016008
-2.7476628 2.4713614 4.5722384 4293787409 1020104
-2.6720777 2.3768206 4.3831921 4294770434 1024200
-2.8891883 2.5418541 4.6722989 4293000989 1028296
-3.0320151 2.6386726 4.834321 4292017964 1032392
-2.7327356 2.3527832 4.2962132 4294966784 1036488
-2.7439134 2.3374078 4.2530093 4294966272 1040584
-2.8660905 2.4159193 4.3799639 4294311689 1044680
-2.900697 2.4197524 4.3708677 4294246154 1048776
-3.0306807 2.5022545 4.5031352 4293394199 1052872
-2.9505854 2.4113922 4.3233552 4294311689 1056968
-2.907578 2.3523619 4.2015486 4294966784 1061064
-3.054106 2.4463236 4.3526483 4293918479 1065160
-3.3713088 2.6737967 4.7389755 4291493684 1069256
-3.1037269 2.437561 4.3033819 4293984014 1073352
-3.5171793 2.735584 4.8104343 4290772799 1077448
-3.4558904 2.6621931 4.6623788 4291559219 1081544
-3.143007 2.3982186 4.1821141 4294377224 1085640
-3.2624769 2.4660037 4.2817416 4293590804 1089736
-3.2345033 2.4221165 4.1871352 4294049549 1093832
-3.1998348 2.3740709 4.0859141 4294573829 1097928
-3.5134597 2.5829544 4.42553 4292345639 1102024
-3.3607652 2.4483402 4.1759233 4293721874 1106120
-3.40272 2.4566722 4.1709886 4293656339 1110216
-3.5263109 2.5232713 4.2634249 4292935454 1114312
-3.7508557 2.6602983 4.4728203 4291428149 1118408
-3.6047497 2.5343437 4.2398238 4292738849 1122504
-3.8110354 2.6561763 4.4212337 4291428149 1126600
-3.9026186 2.6966591 4.4657388 4290969404 1130696
-3.643647 2.4962859 4.112617 4293132059 1134792
-3.9397993 2.6764038 4.3863959 4291166009 1138888
-3.8073678 2.5647957 4.1806045 4292345639 1142984
-4.1729784 2.7877574 4.5185914 4289920844 1147080
-3.7850111 2.5077646 4.0421591 4292935454 1151176
-4.0953665 2.6912408 4.3142829 4290903869 1155272
-3.8992035 2.5415862 4.0518875 4292476709 1159368
-3.858423 2.4948037 3.9527521 4293000989 1163464
-3.8446701 2.4661031 3.8828948 4293263129 1167560
-4.0415807 2.5719149 4.0250378 4292149034 1171656
-3.9036827 2.464678 3.8338785 4293263129 1175752
-4.0452814 2.5342035 3.9171591 4292476709 1179848
-4.1252236 2.5643282 3.9378626 4292149034 1183944
-4.0571222 2.5026693 3.8173099 4292804384 1188040
-4.136344 2.5321343 3.8351591 4292476709 1192136
-4.463975 2.7120755 4.0785666 4290445124 1196232
-4.3777184 2.6397479 3.9413621 4291231544 1200328
-4.3375015 2.596051 3.8480136 4291690289 1204424
-4.4377747 2.6364639 3.8791835 4291231544 1208520
-4.5069747 2.6579595 3.8817077 4290969404 1212616
-4.389904 2.5700893 3.725105 4291886894 1216712
-4.2525525 2.4717002 3.5551734 4292935454 1220808
-4.5943637 2.651228 3.7825966 4290969404 1224904
-4.6745534 2.6783028 3.7899621 4290641729 1229000
-4.8300819 2.7478557 3.8545773 4289855309 1233096
-4.6822505 2.6450608 3.6776907 4290969404 1237192
nan nan nan 4278190080 1241288
-4.7389898 2.6400602 3.6079469 4290969404 1245384
nan nan nan 4278190080 1249480
nan nan nan 4278190080 1253576
nan nan nan 4278190080 1257672
nan nan nan 4278190080 1261768
nan nan nan 4278190080 1265864
nan nan nan 4278190080 1269960
nan nan nan 4278190080 1274056
nan nan nan 4278190080 1278152
nan nan nan 4278190080 1282248
nan nan nan 4278190080 1286344
nan nan nan 4278190080 1290440
nan nan nan 4278190080 1294536
nan nan nan 4278190080 1298632
nan nan nan 4278190080 1302728
nan nan nan 4278190080 1306824
nan nan nan 4278190080 201
nan nan nan 4278190080 4297
nan nan nan 4278190080 8393
nan nan nan 4278190080 12489
nan nan nan 4278190080 16585
nan nan nan 4278190080 20681
nan nan nan 4278190080 24777
nan nan nan 4278190080 28873
nan nan nan 4278190080 32969
nan nan nan 4278190080 37065
nan nan nan 4278190080 41161
nan nan nan 4278190080 45257
nan nan nan 4278190080 49353
nan nan nan 4278190080 53449
nan nan nan 4278190080 57545
nan nan nan 4278190080 61641
nan nan nan 4278190080 65737
nan nan nan 4278190080 69833
nan nan nan 4278190080 73929
nan nan nan 4278190080 78025
nan nan nan 4278190080 82121
nan nan nan 4278190080 86217
nan nan nan 4278190080 90313
4.4120612 2.6343076 3.7830276 4291559219 94409
nan nan nan 4278190080 98505
4.4460111 2.6940513 3.9268689 4290969404 102601
4.4380727 2.7093852 3.9781847 4290838334 106697
nan nan nan 4278190080 110793
4.2736826 2.6487083 3.9452326 4291493684 114889
4.3622718 2.7243307 4.0866084 4290707264 118985
4.3422008 2.7327366 4.127913 4290641729 123081
4.032948 2.557862 3.8892095 4292542244 127177
3.7027669 2.3668666 3.622221 4294639364 131273
4.0085015 2.5825524 3.9766846 4292345639 135369
4.1248689 2.6786995 4.1496086 4291297079 139465
4.0083294 2.6239264 4.0897079 4291952429 143561
4.2135148 2.7805784 4.3608394 4290248519 147657
3.9527147 2.6297653 4.1489043 4291886894 151753
3.6684966 2.4607611 3.903564 4293721874 155849
3.7832456 2.5587926 4.0810852 4292738849 159945
3.826602 2.6097746 4.1858382 4292214569 164041
3.7713757 2.5938153 4.1834493 4292345639 168137
3.9894915 2.7671793 4.4868693 4290576194 172233
3.6696801 2.5672011 4.1842046 4292673314 176329
3.6429839 2.5705905 4.2112255 4292673314 180425
3.7092206 2.6401877 4.3471961 4291952429 184521
3.7165053 2.66868 4.4161768 4291690289 188617
3.597868 2.6064553 4.3345804 4292345639 192713
3.5955374 2.6281283 4.3920469 4292149034 196809
3.6464257 2.6894453 4.515758 4291493684 200905
3.4733613 2.5851958 4.3604527 4292607779 205001
3.5805709 2.6895533 4.5568781 4291559219 209097
3.4108446 2.585896 4.4007502 4292673314 213193
3.4152603 2.6135561 4.4674067 4292345639 217289
3.6275098 2.8022943 4.8108568 4290379589 221385
3.4425495 2.684859 4.6290555 4291624754 225481
3.2913289 2.5917227 4.4874768 4292673314 229577
3.3359687 2.6525018 4.6110072 4292017964 233673
3.3170455 2.6634405 4.6482143 4291952429 237769
3.2174842 2.6092038 4.5712595 4292542244 241865
3.2121124 2.6310267 4.6272154 4292280104 245961
3.0659492 2.5368006 4.4784684 4293328664 250057
3.0050354 2.5119014 4.4511971 4293590804 254153
3.1022384 2.6200252 4.66008 4292476709 258249
2.9712427 2.5356677 4.5266485 4293328664 262345
3.1167107 2.6879568 4.8159347 4291755824 266441
2.9663453 2.585638 4.6492529 4292869919 270537
2.982321 2.6276667 4.7413182 4292411174 274633
2.798105 2.492301 4.5119028 4293852944 278729
2.7586341 2.4842949 4.5120802 4293984014 282825
2.8986893 2.6395884 4.8095946 4292345639 286921
2.6403649 2.4315226 4.4446077 4294573829 291017
2.663923 2.4812539 4.5498157 4294049549 295113
2.6220713 2.4705064 4.5441985 4294180619 299209
2.6457174 2.5219412 4.6530509 4293656339 303305
2.6645677 2.5699677 4.7560568 4293132059 307401
2.5187626 2.4584332 4.563344 4294311689 311497
2.4697289 2.4397929 4.5422397 4294508294 315593
2.5679586 2.5679586 4.7949352 4293197594 319689
2.4895563 2.5204825 4.7192245 4293721874 323785
2.4973476 2.560174 4.806334 4293328664 327881
2.4250979 2.517777 4.7392006 4293787409 331977
2.3896208 2.5129561 4.7424035 4293852944 336073
2.4337595 2.5928288 4.9056635 4293000989 340169
2.3014643 2.4843621 4.712326 4294115084 344265
2.3447495 2.5650616 4.877574 4293328664 348361
2.3056989 2.5566592 4.8736367 4293394199 352457
2.2843547 2.5679297 4.9070911 4293328664 356553
2.3138685 2.6374865 5.0521755 4292607779 360649
2.1428041 2.4771426 4.756341 4294246154 364745
2.2916954 2.6873839 5.172163 4292083499 368841
2.0697002 2.4624901 4.7503319 4294442759 372937
2.1069953 2.5440018 4.9187651 4293590804 377033
2.0406728 2.5009749 4.8464532 4294049549 381129
1.9201123 2.3891473 4.6400285 4294966272 385225
1.9397805 2.4510405 4.7701006 4294573829 389321
1.8990613 2.4373779 4.7529273 4294770434 393417
1.9035039 2.4821692 4.8497372 4294311689 397513
1.8497053 2.4512355 4.7985253 4294639364 401609
1.7934319 2.4159455 4.7384152 4294966784 405705
1.8046252 2.4718814 4.8571815 4294442759 409801
1.8348557 2.556252 5.032207 4293525269 413897
1.7238191 2.4433262 4.818594 4294704899 417993
1.7081136 2.4639158 4.8678079 4294508294 422089
1.651378 2.4249966 4.7992673 4294966784 426185
1.6059452 2.401551 4.761014 4294966272 430281
1.5808771 2.408252 4.7823677 4294966528 434377
1.5506208 2.4071543 4.7881546 4294966272 438473
1.542737 2.4414189 4.8642664 4294770434 442569
1.5570101 2.5127983 5.0145392 4294049549 446665
1.458932 2.4020801 4.8008852 4294966272 450761
1.5060226 2.5307388 5.0650902 4293918479 454857
1.4009089 2.4036648 4.8173456 4294966272 458953
1.3826979 2.4234383 4.8634906 4294966784 463049
1.3379269 2.3965063 4.8157616 4294966016 467145
1.3347543 2.44455 4.9192495 4294835969 471241
1.284219 2.4060655 4.8485665 4294966272 475337
1.2824329 2.4592538 4.9625258 4294639364 479433
1.1524411 2.2632277 4.5730777 4294962432 483529
1.2052923 2.4254649 4.9071798 4294966784 487625
1.1720434 2.418267 4.8982515 4294966528 491721
1.1450949 2.424032 4.9154477 4294966528 495817
1.1427032 2.483475 5.0415082 4294442759 499913
1.1400188 2.5455215 5.1729879 4293787409 504009
1.0678803 2.4516125 4.9873347 4294770434 508105
1.0644214 2.5145028 5.1204581 4294115084 512201
0.9849568 2.3962381 4.884439 4294965760 516297
0.99652642 2.4989817 5.0987501 4294311689 520393
0.96067303 2.4855509 5.0760646 4294442759 524489
0.93325418 2.4937775 5.0974612 4294377224 528585
0.89369696 2.4690273 5.0512829 4294639364 532681
0.85686493 2.4503331 5.0172553 4294835969 536777
0.81257975 2.408191 4.9349704 4294966016 540873
0.78963488 2.4284997 4.9804893 4294966528 544969
0.76211476 2.4357786 4.9991932 4294966784 549065
0.73571634 2.4473829 5.0266647 4294901504 553161
0.70176995 2.4337981 5.0022593 4294966784 557257
0.68037617 2.4644737 5.0687065 4294704899 561353
0.65457165 2.4812832 5.1064658 4294508294 565449
0.60194665 2.393105 4.9276595 4294965504 569545
0.57849181 2.4177992 4.9810724 4294966272 573641
0.55166733 2.4303184 5.0093155 4294966528 577737
0.51930827 2.4184928 4.9872537 4294966272 581833
0.47491974 2.3458157 4.8395042 4294964224 585929
0.45528242 2.3939044 4.9407511 4294965504 590025
0.43570077 2.4489388 5.0562921 4294901504 594121
0.40929574 2.4709334 5.1035466 4294639364 598217
0.36901477 2.4059763 4.9710493 4294965760 602313
0.33645755 2.3844602 4.9281206 4294965248 606409
0.30980265 2.4046586 4.9712777 4294965760 610505
0.28376523 2.434407 5.0340781 4294966528 614601
0.22714995 2.1779671 4.5049911 4294959872 618697
0.19595185 2.1293435 4.4054632 4294958336 622793
0.16157621 2.0259171 4.1923542 4294955776 626889
0.14012603 2.0764129 4.2976155 4294957056 630985
0.11436294 2.0712399 4.2875466 4294956800 635081
0.08973486 2.0895402 4.3259444 4294957312 639177
0.062656477 2.0426011 4.2291446 4294956032 643273
0.037674248 2.0469675 4.2384377 4294956288 647369
0.012451419 2.0295813 4.2025628 4294955776 651465
-0.012664856 2.0643716 4.2746015 4294956800 655561
-0.038186498 2.0747998 4.2960668 4294957056 659657
-0.063243419 2.0617356 4.2687616 4294956544 663753
-0.090183064 2.099977 4.3475513 4294957568 667849
-0.11388273 2.0625427 4.2695432 4294956544 671945
-0.13331781 1.9755276 4.08881 4294954240 676041
-0.16393448 2.0554862 4.2535434 4294956544 680137
-0.185468 2.015419 4.1697617 4294955520 684233
-0.21173151 2.0301313 4.1992021 4294955776 688329
-0.22264345 1.9100465 3.9497597 4294952704 692425
-0.25513488 1.9803326 4.0940461 4294954496 696521
-0.28088227 1.9906003 4.1141047 4294954752 700617
-0.29687855 1.9356481 3.9992924 4294953216 704713
-0.32016501 1.9328481 3.9921675 4294953216 708809
-0.3367306 1.8926582 3.9077466 4294952192 712905
-0.35611036 1.8724513 3.8645301 4294951680 717001
-0.3823812 1.8887314 3.8965225 4294952192 721097
-0.40065187 1.865893 3.8477197 4294951424 725193
-0.43946046 1.9360015 3.9904413 4294953472 729289
-0.44527349 1.8610148 3.8340032 4294951424 733385
-0.46650594 1.8546456 3.8189139 4294951168 737481
-0.47131449 1.7866107 3.6768341 4294949376 741577
-0.49125627 1.7794393 3.65979 4294949120 745673
-0.5380612 1.866042 3.8353329 4294951424 749769
-0.54810148 1.8232764 3.7448163 4294950400 753865
-0.57827312 1.8482062 3.7932591 4294951168 757961
-0.59494197 1.8297273 3.7524967 4294950656 762057
-0.59475982 1.7626518 3.612103 4294948864 766153
-0.61932725 1.7710586 3.6263859 4294949120 770249
-0.65822434 1.8184843 3.7203636 4294950400 774345
-0.67977774 1.8164552 3.7129657 4294950144 778441
-0.67446518 1.7450449 3.5637817 4294948352 782537
-0.70508784 1.7681433 3.6075978 4294948864 786633
-0.72237289 1.7574147 3.5822752 4294948608 790729
-0.74892855 1.7692081 3.6027625 4294949120 794825
-0.75840443 1.7411257 3.541986 4294948352 798921
-0.80598575 1.7996669 3.6572683 4294949888 803017
-0.77448779 1.68322 3.4169736 4294946816 807113
-0.81950259 1.7347913 3.5178068 4294948096 811209
-0.85485542 1.7638155 3.5726464 4294948864 815305
-0.86940175 1.7495369 3.5396483 4294948608 819401
-0.88850987 1.744905 3.5257547 4294948352 823497
-0.89307863 1.7126096 3.4558733 4294947584 827593
-0.92363119 1.7304814 3.4871681 4294948096 831689
-0.9796384 1.7941692 3.6104662 4294949888 835785
-0.9536621 1.7082078 3.432631 4294947584 839881
-0.98813462 1.7318919 3.4756567 4294948096 843977
-0.98438847 1.6890033 3.3850448 4294947072 848073
-1.0191807 1.7126437 3.427732 4294947584 852169
-1.024111 1.6861626 3.3700264 4294946816 856265
-1.0268617 1.6572124 3.3071322 4294946048 860361
-1.0333093 1.6352371 3.2580352 4294945536 864457
-1.0936893 1.6978226 3.3771982 4294947328 868553
-1.096675 1.6706358 3.3175907 4294946560 872649
-1.1451263 1.7124366 3.3948619 4294947584 876745
-1.178717 1.7309088 3.4256103 4294948096 880841
-1.1649352 1.6803932 3.3198502 4294946816 884937
-1.1736318 1.6634954 3.2806542 4294946304 889033
-1.1967525 1.6672707 3.2821689 4294946560 893129
-1.2595598 1.7252793 3.3901281 4294948096 897225
-1.247702 1.6807886 3.2965457 4294946816 901321
-1.2951509 1.7163382 3.359894 4294947840 905417
-1.2451442 1.6236681 3.1723719 4294945536 909513
-1.2511896 1.6058575 3.1314487 4294945024 913609
-1.3411459 1.6946261 3.2980022 4294947328 917705
-1.3324426 1.6579248 3.2199011 4294946304 921801
-1.3558925 1.661733 3.220149 4294946560 925897
-1.3751479 1.6603638 3.2102726 4294946560 929993
-1.4159968 1.684726 3.2499657 4294947072 934089
-1.4186337 1.6635777 3.2017365 4294946560 938185
-1.4200021 1.6415627 3.1519511 4294946048 942281
-1.4268417 1.6264 3.1154125 4294945536 946377
-1.3783913 1.5495019 2.9609637 4294943488 950473
-1.4641014 1.6234593 3.0947225 4294945536 954569
-1.4779478 1.6168154 3.0744436 4294945536 958665
-1.5510988 1.674365 3.1759274 4294947072 962761
-1.5082963 1.6068777 3.0402322 4294945280 966857
-1.4907166 1.5676569 2.9584525 4294944256 970953
-1.5553735 1.6148146 3.0395584 4294945536 975049
-1.5035775 1.5414034 2.8937483 4294943488 979145
-1.6289064 1.6491413 3.087769 4294946304 983241
-1.6159141 1.6159141 3.0172617 4294945536 987337
-1.6523899 1.6323609 3.0390179 4294946048 991433
-1.6315359 1.5924572 2.9559195 4294945024 995529
-1.6998943 1.6395431 3.0341856 4294946304 999625
-2.0680146 1.9712654 3.6370389 4294955264 1003721
-2.3580103 2.221709 4.086566 4294962176 1007817
-2.4015081 2.2368331 4.1016273 4294962688 1011913
-2.6745653 2.4630179 4.5021787 4294246154 1016009
-2.6875358 2.447309 4.4592419 4294377224 1020105
-2.8747773 2.5888877 4.7020459 4292869919 1024201
-2.8668053 2.5534933 4.6226811 4293197594 1028297
-2.9264054 2.5784006 4.6524234 4292935454 1032393
-2.8007638 2.4413075 4.3897314 4294377224 1036489
-2.7703547 2.3892479 4.2807465 4294901504 1040585
-2.9006763 2.4754462 4.4191418 4293984014 1044681
-2.8492813 2.4063878 4.2800961 4294704899 1048777
-3.0577464 2.5559623 4.5292749 4293132059 1052873
-2.7855053 2.3047581 4.0688205 4294964736 1056969
-2.7977462 2.2916212 4.0302992 4294964480 1061065
-3.0516293 2.4747043 4.3356199 4293918479 1065161
-3.4033802 2.7327633 4.7691965 4291166009 1069257
-3.1914577 2.5375981 4.411263 4293263129 1073353
-3.2580886 2.5655479 4.4421563 4292935454 1077449
-3.2802415 2.5582745 4.4108067 4293000989 1081545
-3.3392744 2.5796289 4.4285946 4292738849 1085641
-3.3260374 2.5452774 4.3506966 4293066524 1089737
-2.6841164 2.0349348 3.4631085 4294957568 1093833
-3.325016 2.4975927 4.2316413 4293590804 1097929
-3.4021418 2.5321877 4.2710438 4293197594 1102025
-2.8905776 2.1319644 3.5797107 4294960384 1106121
-3.4759736 2.5407341 4.2459965 4293066524 1110217
-3.8482754 2.7878618 4.6362619 4290445124 1114313
-3.6744251 2.6384637 4.3661742 4292017964 1118409
-3.6467619 2.5957301 4.2739949 4292411174 1122505
-3.8698909 2.7307022 4.473526 4290969404 1126601
-3.6373482 2.5445826 4.1473393 4292935454 1130697
-3.5284462 2.4473903 3.9683444 4293918479 1134793
-3.9319375 2.7042439 4.3615546 4291166009 1138889
-3.9933226 2.7234793 4.3682103 4290969404 1142985
-3.8042464 2.5729966 4.1037397 4292542244 1147081
-3.7394397 2.5083485 3.9790528 4293197594 1151177
-4.026691 2.678982 4.2265525 4291362614 1155273
-3.9937119 2.6355264 4.1333513 4291821359 1159369
-4.2475944 2.7805538 4.3338304 4290248519 1163465
-4.1761489 2.7120011 4.2011967 4290969404 1167561
-3.7722137 2.4303195 3.7422721 4293984014 1171657
-4.04216 2.5838122 3.9542315 4292280104 1175753
-3.9229407 2.488091 3.783123 4293328664 1179849
-4.4569378 2.8049455 4.2369881 4289855309 1183945
-4.4791479 2.7973223 4.1960988 4289920844 1188041
-4.3566022 2.7000995 4.0217791 4290969404 1192137
-4.1118765 2.5291917 3.7404695 4292804384 1196233
-4.2197957 2.5761299 3.7825263 4292280104 1200329
-4.204432 2.547667 3.7134979 4292542244 1204425
-4.2185402 2.5373507 3.6711919 4292607779 1208521
-4.3332376 2.5872443 3.7154419 4292083499 1212617
-4.5337753 2.6872923 3.8299563 4290969404 1216713
nan nan nan 4278190080 1220809
nan nan nan 4278190080 1224905
nan nan nan 4278190080 1229001
-4.799438 2.7643406 3.8108456 4290051914 1233097
-4.9470105 2.8293428 3.8668685 4289331029 1237193
nan nan nan 4278190080 1241289
nan nan nan 4278190080 1245385
nan nan nan 4278190080 1249481
nan nan nan 4278190080 1253577
nan nan nan 4278190080 1257673
nan nan nan 4278190080 1261769
nan nan nan 4278190080 1265865
nan nan nan 4278190080 1269961
nan nan nan 4278190080 1274057
nan nan nan 4278190080 1278153
nan nan nan 4278190080 1282249
nan nan nan 4278190080 1286345
nan nan nan 4278190080 1290441
nan nan nan 4278190080 1294537
nan nan nan 4278190080 1298633
nan nan nan 4278190080 1302729
nan nan nan 4278190080 1306825
nan nan nan 4278190080 202
nan nan nan 4278190080 4298
nan nan nan 4278190080 8394
nan nan nan 4278190080 12490
nan nan nan 4278190080 16586
nan nan nan 4278190080 20682
nan nan nan 4278190080 24778
nan nan nan 4278190080 28874
nan nan nan 4278190080 32970
nan nan nan 4278190080 37066
nan nan nan 4278190080 41162
nan nan nan 4278190080 45258
nan nan nan 4278190080 49354
nan nan nan 4278190080 53450
nan nan nan 4278190080 57546
nan nan nan 4278190080 61642
nan nan nan 4278190080 65738
nan nan nan 4278190080 69834
nan nan nan 4278190080 73930
nan nan nan 4278190080 78026
nan nan nan 4278190080 82122
nan nan nan 4278190080 86218
nan nan nan 4278190080 90314
nan nan nan 4278190080 94410
nan nan nan 4278190080 98506
nan nan nan 4278190080 102602
3.9210324 2.42311 3.4990587 4294246154 106698
4.2970824 2.6755419 3.8916297 4291559219 110794
4.3212557 2.7110538 3.971544 4291166009 114890
4.4414115 2.8077891 4.1424227 4290182984 118986
4.1242418 2.6274128 3.9035087 4292149034 123082
4.2640371 2.7376113 4.0949597 4290969404 127178
4.1039925 2.6555245 3.9980822 4291886894 131274
4.107029 2.6784971 4.0584717 4291624754 135370
3.9292445 2.5829694 3.9373844 4292673314 139466
4.077836 2.7021804 4.1437178 4291428149 143562
3.6865363 2.462666 3.7998221 4293984014 147658
3.9608965 2.6675425 4.1413231 4291821359 151754
3.774718 2.5630801 4.0018601 4292935454 155850
3.6046662 2.4679251 3.8742287 4293984014 159946
3.6215222 2.5002141 3.9463181 4293656339 164042
3.7187169 2.58898 4.1092601 4292738849 168138
3.6714704 2.5778408 4.1141963 4292869919 172234
3.5853238 2.5389633 4.0732298 4293328664 176330
3.5593407 2.5423863 4.0996819 4293263129 180426
3.6780801 2.6501451 4.2951698 4292149034 184522
3.5255818 2.5626476 4.1742463 4293132059 188618
3.1884108 2.3381679 3.827534 4294965504 192714
3.4710639 2.5682759 4.2248497 4293066524 196810
3.3769326 2.5212393 4.167614 4293590804 200906
3.5247726 2.6556506 4.410059 4292214569 205002
3.5878294 2.7280729 4.5507278 4291493684 209098
3.2515447 2.4953716 4.1811004 4293918479 213194
3.4995987 2.7109568 4.5623426 4291690289 217290
3.2264831 2.5230792 4.2646742 4293656339 221386
3.1436279 2.4818115 4.2129779 4294115084 225482
3.3081725 2.6369491 4.495378 4292476709 229578
3.1176233 2.5093067 4.2956309 4293852944 233674
3.2764654 2.663137 4.5768991 4292280104 237770
3.2492893 2.6673272 4.6019316 4292214569 241866
3.0329437 2.5147524 4.3553877 4293852944 245962
3.1852534 2.6678517 4.6381307 4292280104 250058
3.0421853 2.574157 4.4920874 4293263129 254154
3.1119163 2.6604466 4.6599584 4292345639 258250
2.9391794 2.5390816 4.4637628 4293656339 262346
3.1035986 2.7094908 4.7806964 4291886894 266442
2.9222968 2.5784972 4.5659108 4293263129 270538
2.9511597 2.6321154 4.6774192 4292738849 274634
2.7862246 2.5121696 4.4795766 4293984014 278730
2.7903249 2.5436664 4.5505404 4293656339 282826
2.755362 2.5398591 4.5583878 4293721874 286922
2.6243536 2.4464314 4.4047136 4294704899 291018
2.6426055 2.4915996 4.5001841 4294246154 295114
2.6742263 2.5505626 4.6210423 4293656339 299210
2.6686885 2.5750504 4.67975 4293394199 303306
2.5679717 2.5071914 4.5702553 4294115084 307402
2.6723804 2.6403759 4.8274722 4292738849 311498
2.4342 2.4342 4.4637551 4294901504 315594
2.4201617 2.449857 4.505692 4294704899 319690
2.4436674 2.5043795 4.6193719 4294180619 323786
2.2952764 2.3818905 4.4053812 4294965504 327882
2.3802772 2.501565 4.638916 4294246154 331978
2.3884566 2.5425506 4.7271914 4293852944 336074
2.3378401 2.5211999 4.6995087 4294049549 340170
2.2290263 2.4356909 4.5515909 4294966784 344266
