# .PCD v0.7 - Point Cloud Data file format
VERSION 0.7
FIELDS x y z rgba label
SIZE 4 4 4 4 4
TYPE F F F U U
COUNT 1 1 1 1 1
WIDTH 1040
HEIGHT 1
VIEWPOINT 0 0 0 1 0 0 0
POINTS 1040
DATA ascii
-0.88787407 2.8891139 4.4192777 4294963712 782558
-0.92378718 2.9134827 4.4517679 4294964224 786654
-1.0038908 3.0716062 4.6881847 4294639364 790750
-1.0874177 3.2307339 4.9254422 4293328664 794846
-1.1131362 3.2139847 4.8941627 4293459734 798942
-1.0540444 2.9599874 4.5019512 4294965248 803038
-1.103225 3.0154817 4.580677 4294966528 807134
-1.1639982 3.0989563 4.7014976 4294377224 811230
-1.1200612 2.9064877 4.4037514 4294964224 815326
-1.1187952 2.8315184 4.2844296 4294962688 819422
-1.1862879 2.9299881 4.4273572 4294964736 823518
-1.1918157 2.8743792 4.3372531 4294963456 827614
-1.1976272 2.821995 4.2521286 4294962432 831710
-1.2346622 2.8438849 4.2788529 4294962944 835806
-1.3079355 2.9464478 4.426548 4294965248 839902
-1.3304621 2.932739 4.399229 4294964992 843998
-1.4444218 3.1169102 4.6682043 4294180619 848094
-1.3319553 2.8149571 4.209229 4294962432 852190
-1.3797824 2.857125 4.2653127 4294963200 856286
-1.5136447 3.0722492 4.5788307 4294508294 860382
-1.4999541 2.9853456 4.4417582 4294966016 864478
-1.5506052 3.0273721 4.496408 4294901504 868574
-1.5209088 2.9138908 4.3196363 4294964736 872670
-1.6157136 3.0387273 4.4959817 4294770434 876766
-1.653636 3.0540123 4.5096965 4294639364 880862
-1.6492579 2.9920166 4.4092937 4294966272 884958
-1.6147879 2.878535 4.233429 4294963968 889054
-1.6956091 2.9709389 4.3602977 4294966016 893150
-1.6431688 2.8306689 4.1457005 4294962944 897246
-1.7511925 2.9668963 4.3359308 4294966016 901342
-1.8386686 3.0644476 4.4687519 4294508294 905438
-1.6870747 2.7668023 4.0257678 4294961664 909534
-1.7890552 2.887845 4.1924276 4294964224 913630
-1.8387841 2.9220989 4.2324529 4294964992 917726
-1.919216 3.0033534 4.3400383 4294966784 921822
-1.8867179 2.9080992 4.1924758 4294964736 925918
-2.0712674 3.1452579 4.5235162 4293787409 930014
-2.0653875 3.0905433 4.4340177 4294246154 934110
-2.1526933 3.1748354 4.5432639 4293525269 938206
-2.1329858 3.1011496 4.4259849 4294115084 942302
-2.1974537 3.1501958 4.4838243 4293721874 946398
-2.1420991 3.0284851 4.2987642 4294704899 950494
-2.0599496 2.8727188 4.0662804 4294964224 954590
-1.9639729 2.7021105 3.8139625 4294960384 958686
-2.2084925 2.9982846 4.219862 4294901504 962782
-2.2495224 3.014066 4.2297344 4294770434 966878
-2.4010925 3.1756384 4.4433355 4293394199 970974
-2.4277246 3.1699588 4.4221354 4293459734 975070
-2.469888 3.1844468 4.4288936 4293328664 979166
-2.3553209 2.9990113 4.1581917 4294835969 983262
-2.6377165 3.3173735 4.5853047 4292149034 987358
-2.5482006 3.1659462 4.3622131 4293459734 991454
-2.5044439 3.0743172 4.2218003 4294180619 995550
-2.6216817 3.1801465 4.3521824 4293263129 999646
-2.5002191 2.9973388 4.0877829 4294835969 1003742
-2.4647646 2.9206748 3.9692183 4294965504 1007838
-2.6729758 3.1312003 4.2401514 4293656339 1011934
-2.7259593 3.1571844 4.2599034 4293459734 1016030
-2.6407349 3.0243053 4.0656972 4294508294 1020126
-2.746361 3.1105192 4.166122 4293787409 1024222
-2.9045119 3.2536883 4.341548 4292607779 1028318
-2.6486371 2.9349761 3.9009681 4294966016 1032414
-2.5940855 2.8437836 3.7644484 4294964224 1036510
-2.8259292 3.0651612 4.0408597 4294115084 1040606
-2.7875159 2.9918363 3.9277947 4294704899 1044702
-3.0446098 3.233912 4.2277169 4292673314 1048798
-2.9040124 3.0529363 3.9741108 4294180619 1052894
-2.7498958 2.8615668 3.708926 4294964736 1056990
-3.1278181 3.2221241 4.1580129 4292738849 1061086
-2.9375751 2.9960341 3.8491647 4294639364 1065182
-3.1194232 3.1501565 4.0281277 4293328664 1069278
-3.2178488 3.2178488 4.0950923 4292738849 1073374
-3.2409637 3.20965 4.0652676 4292804384 1077470
-3.2197382 3.1581166 3.981437 4293197594 1081566
-3.215874 3.1244273 3.920465 4293459734 1085662
-3.2629533 3.1404011 3.9206016 4293328664 1089758
-3.023694 2.8830571 3.5801201 4294965504 1093854
-3.0878582 2.9171011 3.6028535 4294966272 1097950
-3.1577961 2.9559278 3.6319027 4294835969 1102046
-3.0603492 2.8387854 3.4696894 4294964736 1106142
-3.3952274 3.1211731 3.7941394 4293394199 1110238
-3.4166315 3.112931 3.7626972 4293459734 1114334
-3.3615112 3.0357261 3.6483512 4294115084 1118430
-3.3670344 3.0141575 3.6004469 4294246154 1122526
-3.1159728 2.7652574 3.2827551 4294963200 1126622
-3.3802533 2.9740427 3.5085926 4294573829 1130718
-3.5968733 3.1376979 3.678319 4293132059 1134814
-3.693624 3.1949069 3.7214663 4292607779 1138910
-3.790108 3.2509294 3.7621861 4292149034 1143006
-3.8080795 3.2392378 3.7240603 4292214569 1147102
-3.5450883 2.9907122 3.4154925 4294311689 1151198
-3.7302418 3.1212227 3.5405538 4293197594 1155294
-3.9427428 3.2723169 3.6861994 4291886894 1159390
-3.8434501 3.1642861 3.5387635 4292804384 1163486
-3.8093708 3.111239 3.4538367 4293197594 1167582
-4.0274858 3.2633777 3.5945222 4291886894 1171678
-4.1710186 3.3531718 3.6642923 4291100474 1175774
-4.0785351 3.2533064 3.5279388 4291952429 1179870
-3.8876522 3.0770993 3.3110518 4293459734 1183966
-4.0080519 3.1480868 3.3591497 4292804384 1188062
-4.0333204 3.1438429 3.325444 4292804384 1192158
-4.0660934 3.1454685 3.2985718 4292804384 1196254
-4.0141373 3.0820155 3.2043691 4293328664 1200350
-4.2957578 3.2737186 3.3735228 4291624754 1204446
-4.1095657 3.1087122 3.1739693 4293000989 1208542
-4.314249 3.2396376 3.2761788 4291886894 1212638
-3.7590947 2.8022342 2.805706 4294964992 1216734
-4.4633112 3.3031726 3.2739608 4291297079 1220830
nan nan nan 4278190080 1224926
nan nan nan 4278190080 1229022
nan nan nan 4278190080 1233118
nan nan nan 4278190080 1237214
nan nan nan 4278190080 1241310
nan nan nan 4278190080 1245406
nan nan nan 4278190080 1249502
nan nan nan 4278190080 1253598
nan nan nan 4278190080 1257694
nan nan nan 4278190080 1261790
nan nan nan 4278190080 1265886
nan nan nan 4278190080 1269982
nan nan nan 4278190080 1274078
nan nan nan 4278190080 1278174
nan nan nan 4278190080 1282270
nan nan nan 4278190080 1286366
nan nan nan 4278190080 1290462
nan nan nan 4278190080 1294558
nan nan nan 4278190080 1298654
nan nan nan 4278190080 1302750
nan nan nan 4278190080 1306846
nan nan nan 4278190080 223
nan nan nan 4278190080 4319
nan nan nan 4278190080 8415
nan nan nan 4278190080 12511
nan nan nan 4278190080 16607
nan nan nan 4278190080 20703
nan nan nan 4278190080 24799
nan nan nan 4278190080 28895
nan nan nan 4278190080 32991
nan nan nan 4278190080 37087
nan nan nan 4278190080 41183
nan nan nan 4278190080 45279
nan nan nan 4278190080 49375
nan nan nan 4278190080 53471
nan nan nan 4278190080 57567
nan nan nan 4278190080 61663
nan nan nan 4278190080 65759
nan nan nan 4278190080 69855
nan nan nan 4278190080 73951
nan nan nan 4278190080 78047
nan nan nan 4278190080 82143
nan nan nan 4278190080 86239
nan nan nan 4278190080 90335
nan nan nan 4278190080 94431
nan nan nan 4278190080 98527
nan nan nan 4278190080 102623
nan nan nan 4278190080 106719
nan nan nan 4278190080 110815
nan nan nan 4278190080 114911
nan nan nan 4278190080 119007
3.7602298 3.0052803 3.1814876 4294311689 123103
4.2388301 3.414155 3.6439493 4290838334 127199
4.044888 3.2834971 3.5315671 4291952429 131295
4.0699306 3.3299429 3.6091592 4291559219 135391
4.0050001 3.3029284 3.6080909 4291821359 139487
3.5291786 2.9338953 3.2298143 4294966784 143583
3.7006795 3.1013792 3.4391279 4293590804 147679
3.7216475 3.1444125 3.511986 4293263129 151775
3.7826593 3.2222655 3.6236713 4292607779 155871
3.5883405 3.0821016 3.4893191 4293787409 159967
3.7538445 3.2512376 3.7052019 4292411174 164063
3.8393083 3.3533199 3.8465509 4291559219 168159
3.681859 3.2431693 3.7442424 4292476709 172255
3.6363809 3.2306046 3.7534869 4292607779 176351
3.5323186 3.1653244 3.7007704 4293197594 180447
3.5958986 3.2504411 3.8239274 4292476709 184543
3.3562984 3.0605893 3.6227272 4294115084 188639
3.4787574 3.2004566 3.8111033 4292935454 192735
3.4387097 3.1919861 3.822722 4293000989 196831
3.2837899 3.075767 3.7043173 4294049549 200927
3.2205248 3.0440578 3.6858687 4294311689 205023
3.2974975 3.145539 3.8286288 4293459734 209119
3.2011955 3.0820813 3.7707698 4294049549 213215
3.3854601 3.2900951 4.0469074 4292280104 217311
3.0564435 2.9985013 3.707835 4294770434 221407
2.9650855 2.9367115 3.649648 4294966016 225503
2.844398 2.844398 3.5514443 4294963968 229599
2.9827158 3.0118155 3.7778378 4294704899 233695
2.944931 3.0029593 3.7845187 4294770434 237791
2.8793099 2.9652593 3.7547128 4294966528 241887
3.026799 3.1484795 4.0053763 4293590804 245983
2.7795949 2.9206913 3.73195 4294965504 250079
2.9313529 3.1117437 3.9933348 4293918479 254175
2.781832 2.9836228 3.8453403 4294966784 258271
2.8291783 3.0661774 3.9684846 4294311689 262367
2.8068531 3.0741725 3.9954898 4294311689 266463
2.7949276 3.0938504 4.0376835 4294115084 270559
2.6948993 3.0153737 3.9512978 4294835969 274655
2.5755167 2.9132893 3.8328917 4294964992 278751
2.7698681 3.1677496 4.1839633 4293525269 282847
2.6714647 3.0893474 4.0955911 4294246154 286943
2.735307 3.1989183 4.2564321 4293328664 291039
2.7039671 3.1984067 4.2711921 4293328664 295135
2.5295296 3.0266623 4.0563235 4294770434 299231
2.5138559 3.0430889 4.0927658 4294639364 303327
2.5415537 3.1130273 4.2014475 4294115084 307423
2.5048273 3.1047859 4.2047305 4294180619 311519
2.5604846 3.2122445 4.3650246 4293263129 315615
2.3869686 3.0313039 4.1329522 4294835969 319711
2.3254757 2.9898975 4.089273 4294966272 323807
2.3224418 3.0235565 4.1480508 4294901504 327903
2.2096119 2.9133101 4.0089545 4294964480 331999
2.2025776 2.9415069 4.0598974 4294965248 336095
2.2752225 3.0782423 4.2611938 4294442759 340191
2.1954656 3.0096779 4.1784415 4294966528 344287
2.1688399 3.0130861 4.1952176 4294966528 348383
2.1658115 3.0498164 4.2584157 4294770434 352479
2.0972104 2.9939487 4.1921144 4294966272 356575
1.9916874 2.8830719 4.0480108 4294963712 360671
1.9557462 2.8712018 4.0422959 4294963456 364767
2.0256698 3.016645 4.2584176 4294966528 368863
1.8751935 2.8333216 4.0101714 4294962688 372959
1.9004786 2.9140673 4.1351676 4294964224 377055
1.746213 2.7177901 3.8659799 4294960128 381151
1.828564 2.8894105 4.1198273 4294963712 385247
1.8154744 2.913203 4.1634259 4294964224 389343
1.7449216 2.8440847 4.0739646 4294962688 393439
1.8981603 3.1433537 4.5128083 4294049549 397535
1.764395 2.9693477 4.2724609 4294965504 401631
1.6939484 2.8979118 4.1787853 4294963712 405727
1.6702294 2.9053571 4.1985254 4294963968 409823
1.6090523 2.8467848 4.1225491 4294962688 413919
1.6758465 3.0165238 4.3773966 4294966272 418015
1.6921178 3.0997202 4.507277 4294508294 422111
1.5406992 2.8731959 4.1862426 4294963200 426207
1.4848399 2.8198335 4.1165791 4294962176 430303
1.5520836 3.002629 4.3919268 4294966016 434399
1.5339099 3.0239937 4.4315891 4294966272 438495
1.5282608 3.0713589 4.5094047 4294770434 442591
1.4788362 3.0308819 4.458127 4294966528 446687
1.4530988 3.0382974 4.4765677 4294966528 450783
1.3428204 2.8656063 4.2290254 4294962944 454879
1.3264761 2.8903217 4.2723269 4294963456 458975
1.2686763 2.8238277 4.1805816 4294961920 463071
1.3610842 3.0960927 4.590693 4294573829 467167
1.2413886 2.8872745 4.2874765 4294963200 471263
1.2361845 2.9412665 4.3740363 4294964480 475359
1.1000713 2.6789973 3.9897013 4294958848 479455
1.1407024 2.8448842 4.2426629 4294962432 483551
1.2334615 3.1521795 4.7073498 4294180619 487647
1.1505642 3.0147693 4.5081377 4294966016 491743
1.0063522 2.7053885 4.0507784 4294959360 495839
0.97055995 2.6787455 4.0159822 4294958848 499935
0.9955247 2.8229263 4.2373767 4294961920 504031
1.0270486 2.9943531 4.500114 4294965504 508127
0.88326567 2.649797 3.986959 4294958080 512223
0.91244143 2.8190353 4.2464309 4294961664 516319
0.88432795 2.8162444 4.2469182 4294961664 520415
0.84465963 2.7753103 4.1896801 4294960896 524511
0.8635574 2.9304326 4.4284573 4294963968 528607
0.82791483 2.9047182 4.3940177 4294963456 532703
0.82486838 2.9955747 4.5358715 4294965504 536799
0.81543469 3.0689998 4.6514225 4294901504 540895
0.79341906 3.0988255 4.7008896 4294639364 544991
0.7506808 3.046881 4.626132 4294966528 549087
0.71719867 3.0297985 4.604054 4294966016 553183
0.70830452 3.1195538 4.744257 4294508294 557279
0.63035041 2.8996119 4.413166 4294963456 561375
0.59967792 2.8868215 4.3969402 4294962944 565471
0.60835093 3.0714304 4.6814151 4294901504 569567
0.55797124 2.9615395 4.5169516 4294964736 573663
0.51087862 2.8581588 4.3620558 4294962432 577759
0.49842888 2.9478507 4.5016618 4294964224 581855
0.47189611 2.9600756 4.522913 4294964480 585951
0.43352318 2.8948159 4.4255772 4294963200 590047
0.40802664 2.9124658 4.4548063 4294963456 594143
0.38346857 2.9399257 4.4989257 4294964224 598239
0.34362298 2.8451982 4.355751 4294962176 602335
0.31142697 2.8028426 4.2925029 4294961152 606431
0.28148654 2.7746532 4.2507787 4294960640 610527
0.2611064 2.8446856 4.3594189 4294962176 614623
0.24206175 2.9474578 4.5181742 4294964224 618719
0.2131197 2.941052 4.5094719 4294964224 622815
0.18484877 2.943361 4.5139918 4294964224 626911
0.15804072 2.9740391 4.5618877 4294964736 631007
0.12983216 2.9861395 4.5811586 4294964992 635103
0.098103069 2.9010479 4.4511676 4294963200 639199
0.070312262 2.9109275 4.4667416 4294963456 643295
0.042662602 2.9437194 4.5173397 4294964224 647391
0.014405573 2.9819536 4.5761542 4294964992 651487
-0.013978311 2.8935103 4.4404283 4294963200 655583
-0.042757548 2.9502709 4.5273933 4294964224 659679
-0.066989176 2.7733519 4.2556353 4294960640 663775
-0.093340069 2.7601991 4.2350588 4294960384 667871
-0.1268415 2.9173546 4.4756327 4294963712 671967
-0.15032434 2.8288307 4.3391523 4294961664 676063
-0.18649431 2.9695632 4.5541754 4294964736 680159
-0.21074642 2.9083006 4.4592552 4294963456 684255
-0.2400894 2.9234414 4.4813595 4294963712 688351
-0.26050523 2.838136 4.3493819 4294961920 692447
-0.29444247 2.9023614 4.4464283 4294963456 696543
-0.32779872 2.9501884 4.5181603 4294964480 700639
-0.35667193 2.9532437 4.5211592 4294964480 704735
-0.37677851 2.8886352 4.4204369 4294962944 708831
-0.41536468 2.9648445 4.5349231 4294964736 712927
-0.45019084 3.0061131 4.5957274 4294965504 717023
-0.45641556 2.8629704 4.3745389 4294962432 721119
-0.50138032 2.9653065 4.5283189 4294964736 725215
-0.526088 2.943249 4.4919186 4294964224 729311
-0.52467793 2.7848289 4.2474318 4294960896 733407
-0.59711719 3.0147138 4.5949688 4294965760 737503
-0.61417711 2.95662 4.5032511 4294964480 741599
-0.66614693 3.064276 4.6637816 4294966784 745695
-0.71003753 3.1271865 4.7558646 4294442759 749791
-0.68674546 2.9011493 4.4085598 4294963456 753887
-0.71818262 2.9149766 4.425859 4294963712 757983
-0.78113967 3.0508661 4.6281357 4294966528 762079
-0.80935371 3.046113 4.616735 4294966528 766175
-0.7915616 2.8746185 4.3527203 4294962944 770271
-0.85431123 2.9973292 4.5341125 4294965504 774367
-0.88859737 3.0154042 4.5568662 4294965760 778463
-0.99051923 3.2545631 4.9131727 4293394199 782559
-0.9434883 3.0046475 4.5310316 4294965760 786655
-0.95684761 2.9562306 4.4530935 4294964736 790751
-0.96963263 2.9088979 4.3768096 4294963712 794847
-1.0083818 2.93993 4.4183235 4294964224 798943
-1.0665239 3.0242529 4.5395799 4294966016 803039
-1.0919784 3.0138605 4.5183878 4294966016 807135
-1.1192482 3.008888 4.505208 4294965760 811231
-1.1601107 3.0397837 4.5455427 4294966528 815327
-1.165385 2.9782062 4.4475441 4294965248 819423
-1.1816752 2.9470696 4.3950548 4294964480 823519
-1.2326155 3.0017812 4.4704075 4294965760 827615
-1.2941805 3.0792572 4.579246 4294770434 831711
-1.2848231 2.9882965 4.43749 4294965504 835807
-1.2823123 2.916908 4.3250093 4294963968 839903
-1.3311101 2.9627936 4.3863153 4294964992 843999
-1.3110346 2.8566754 4.2225928 4294962688 848095
-1.3870556 2.9600053 4.3683386 4294964992 852191
-1.5127583 3.1630399 4.6603608 4293984014 856287
-1.4460319 2.9636495 4.3592348 4294964992 860383
-1.3162571 2.6452932 3.8838499 4294958336 864479
-1.4470433 2.8527424 4.1806245 4294962688 868575
-1.4792684 2.8617623 4.1858816 4294962944 872671
-1.540172 2.9249139 4.2699823 4294964224 876767
-1.6150337 3.0118198 4.3882174 4294966272 880863
-1.6093737 2.9481447 4.2868724 4294964736 884959
-1.5898594 2.861747 4.1527939 4294962944 889055
-1.7448218 3.0869925 4.4704037 4294573829 893151
-1.7025645 2.9616039 4.2798076 4294965248 897247
-1.6661373 2.8503342 4.1101785 4294962688 901343
-1.8774396 3.1595933 4.5461969 4293918479 905439
-1.8237739 3.0201695 4.3359571 4294966528 909535
-1.6952182 2.7630723 3.9579191 4294960896 913631
-1.8928574 3.0373759 4.3408885 4294901504 917727
-1.8777447 2.9671233 4.2306333 4294965504 921823
-1.8786174 2.9238632 4.1591129 4294964480 925919
-1.9876952 3.0477993 4.3249383 4294835969 930015
-1.9915011 3.0090566 4.2588997 4294966528 934111
-2.0893564 3.1114876 4.3923016 4294246154 938207
-2.1010511 3.0845218 4.3426242 4294508294 942303
-2.0080554 2.9067655 4.0812783 4294964224 946399
-2.1816721 3.1145248 4.3609447 4294246154 950495
-2.1696327 3.0551972 4.2659287 4294704899 954591
-2.2656286 3.1475511 4.3824372 4293918479 958687
-2.1138904 2.8978498 4.0231867 4294964224 962783
-2.0059137 2.7138834 3.7568135 4294960128 966879
-2.3610537 3.1531491 4.3520083 4293852944 970975
-2.13061 2.8091481 3.8656192 4294962432 975071
-2.3455262 3.0536096 4.189281 4294639364 979167
-2.2845902 2.9373302 4.0173769 4294965248 983263
-2.3151991 2.940161 4.0086861 4294965248 987359
-2.5382717 3.1843772 4.3271565 4293525269 991455
-2.4037008 2.9794376 4.0349746 4294966272 995551
-2.5039594 3.0669799 4.1393003 4294442759 999647
-2.5722151 3.113734 4.1877794 4294049549 1003743
-2.6511328 3.1721647 4.2513251 4293590804 1007839
-2.6397805 3.1224833 4.1698031 4293984014 1011935
-2.6311221 3.077075 4.0943093 4294311689 1016031
-2.5421407 2.9397941 3.8973258 4294965504 1020127
-2.6083624 2.9830444 3.9400043 4294966528 1024223
-2.7104247 3.0658903 4.0336623 4294377224 1028319
-2.8226378 3.1583028 4.1385899 4293590804 1032415
-2.7140269 3.004297 3.9208102 4294901504 1036511
-2.7980969 3.0645823 3.9830256 4294377224 1040607
-2.7810261 3.0139918 3.9009418 4294770434 1044703
-2.8721447 3.0804868 3.9701803 4294180619 1048799
-2.9022899 3.0808923 3.9537427 4294180619 1052895
-2.7795949 2.9206913 3.73195 4294965504 1056991
-2.9522271 3.0709097 3.9066954 4294246154 1061087
-2.9422174 3.0300448 3.8367462 4294573829 1065183
-2.941808 2.9997747 3.7805054 4294835969 1069279
-3.0762212 3.1062331 3.8962696 4293918479 1073375
-2.9790378 2.9790378 3.7195523 4294966784 1077471
-3.0089414 2.9801476 3.703629 4294901504 1081567
-3.1298325 3.0704992 3.796865 4294180619 1085663
-3.3125024 3.2191923 3.9596951 4292869919 1089759
-3.0078495 2.8959296 3.5430226 4294965248 1093855
-3.1368332 2.9922786 3.642086 4294770434 1097951
-3.2082329 3.0324392 3.6718006 4294442759 1102047
-3.0944705 2.8984406 3.4907534 4294965248 1106143
-3.3477988 3.1075978 3.7216587 4293721874 1110239
-3.2828195 3.0201938 3.5964463 4294442759 1114335
-3.4036679 3.1037853 3.673857 4293721874 1118431
-3.3710821 3.0472229 3.5848546 4294180619 1122527
-3.404319 3.0506237 3.5666666 4294180619 1126623
-3.2374682 2.8762057 3.3417273 4294964992 1130719
-3.6615765 3.2253036 3.7236161 4292673314 1134815
-3.6505294 3.188437 3.6574156 4292935454 1138911
-3.8265464 3.3142054 3.7769618 4291886894 1143007
-3.959506 3.4009035 3.8502421 4291100474 1147103
-3.8503168 3.2798994 3.6884849 4292083499 1151199
-3.6968615 3.1234705 3.4885962 4293394199 1155295
-3.7556155 3.1474187 3.4901812 4293197594 1159391
-3.8750532 3.2214296 3.54635 4292542244 1163487
-3.6869822 3.0406587 3.3215895 4294049549 1167583
-3.828721 3.1325898 3.3952579 4293263129 1171679
-3.7287002 3.0268271 3.2555056 4294115084 1175775
-4.0537453 3.2650788 3.4848394 4292083499 1179871
-3.8149714 3.0490313 3.2278037 4293918479 1183967
-4.1870074 3.3207302 3.4851282 4291559219 1188063
-4.0321941 3.1736281 3.3021049 4292804384 1192159
-4.2270122 3.3018548 3.4063821 4291690289 1196255
-4.08111 3.1640067 3.2358055 4292869919 1200351
-4.1488066 3.1925759 3.2352095 4292607779 1204447
-3.8911803 2.97223 2.9838436 4294442759 1208543
-4.2079234 3.1906233 3.1715772 4292542244 1212639
-4.1913686 3.1549575 3.1048167 4292804384 1216735
-3.8737056 2.8947909 2.8199637 4294966528 1220831
-4.3300095 3.2125876 3.0973897 4292280104 1224927
-4.3206549 3.182831 3.0366242 4292542244 1229023
nan nan nan 4278190080 1233119
nan nan nan 4278190080 1237215
nan nan nan 4278190080 1241311
nan nan nan 4278190080 1245407
nan nan nan 4278190080 1249503
nan nan nan 4278190080 1253599
nan nan nan 4278190080 1257695
nan nan nan 4278190080 1261791
nan nan nan 4278190080 1265887
nan nan nan 4278190080 1269983
nan nan nan 4278190080 1274079
nan nan nan 4278190080 1278175
nan nan nan 4278190080 1282271
nan nan nan 4278190080 1286367
nan nan nan 4278190080 1290463
nan nan nan 4278190080 1294559
nan nan nan 4278190080 1298655
nan nan nan 4278190080 1302751
nan nan nan 4278190080 1306847
nan nan nan 4278190080 224
nan nan nan 4278190080 4320
nan nan nan 4278190080 8416
nan nan nan 4278190080 12512
nan nan nan 4278190080 16608
nan nan nan 4278190080 20704
nan nan nan 4278190080 24800
nan nan nan 4278190080 28896
nan nan nan 4278190080 32992
nan nan nan 4278190080 37088
nan nan nan 4278190080 41184
nan nan nan 4278190080 45280
nan nan nan 4278190080 49376
nan nan nan 4278190080 53472
nan nan nan 4278190080 57568
nan nan nan 4278190080 61664
nan nan nan 4278190080 65760
nan nan nan 4278190080 69856
nan nan nan 4278190080 73952
nan nan nan 4278190080 78048
nan nan nan 4278190080 82144
nan nan nan 4278190080 86240
nan nan nan 4278190080 90336
nan nan nan 4278190080 94432
nan nan nan 4278190080 98528
nan nan nan 4278190080 102624
nan nan nan 4278190080 106720
nan nan nan 4278190080 110816
nan nan nan 4278190080 114912
nan nan nan 4278190080 119008
3.7607923 3.0347705 3.1600134 4294246154 123104
4.271049 3.4733434 3.6478546 4290576194 127200
3.3806279 2.7707891 2.9332201 4294962688 131296
3.7038364 3.059691 3.2638552 4294115084 135392
3.9736576 3.3087428 3.556746 4292017964 139488
3.9860942 3.345758 3.6246269 4291755824 143584
3.8818235 3.28462 3.5855267 4292280104 147680
3.4964831 2.9827142 3.2795334 4294835969 151776
3.5428948 3.0471811 3.374356 4294311689 155872
3.6604221 3.174391 3.5390043 4293263129 159968
3.7187576 3.2519679 3.6496177 4292607779 164064
3.7443993 3.3020229 3.7301397 4292214569 168160
4.0349641 3.5885427 4.0801039 4289855309 172256
3.4414029 3.0869236 3.5322473 4294049549 176352
3.2016785 2.8967569 3.3355644 4294964992 180448
3.5159152 3.2088482 3.7179608 4293066524 184544
3.5554407 3.2735114 3.8162713 4292542244 188640
3.4872093 3.2392302 3.7993236 4292869919 192736
3.1549852 2.9569144 3.4888194 4294966016 196832
3.214292 3.0397604 3.6068611 4294573829 200928
3.1949935 3.0491033 3.6381683 4294508294 205024
3.2000751 3.0821002 3.697104 4294246154 209120
3.2375467 3.1471965 3.7947133 4293721874 213216
3.2117345 3.1514204 3.8192821 4293721874 217312
3.4141126 3.3817513 4.120254 4291821359 221408
3.0114512 3.0114512 3.6883976 4294901504 225504
3.3255186 3.3576491 4.1328444 4292017964 229600
3.1822643 3.2443573 4.0118804 4293000989 233696
3.0648961 3.1554842 3.9198208 4293721874 237792
2.9055631 3.0212073 3.7705507 4294901504 241888
2.8965452 3.0421004 3.8144367 4294704899 245984
3.0023708 3.1852565 4.0124497 4293525269 250080
2.688179 2.8811767 3.6452625 4294963968 254176
3.0251508 3.2759404 4.1625328 4292804384 258272
2.7921636 3.0552995 3.8986616 4294639364 262368
2.6749513 2.958015 3.7903543 4294965504 266464
2.9021335 3.243561 4.1734676 4293132059 270560
2.8191788 3.1849101 4.1147666 4293656339 274656
2.5995946 2.968936 3.8511977 4294965504 278752
2.7991214 3.2321348 4.2093019 4293263129 282848
2.5516262 2.9792731 3.8951149 4294965760 286944
2.6313329 3.107054 4.0771251 4294311689 291040
2.7583559 3.294265 4.3384938 4292804384 295136
2.4771023 2.9925687 3.9553044 4294966016 299232
2.553057 3.1204028 4.1388731 4294246154 303328
2.4256511 2.9997697 3.9927814 4294966016 307424
2.459374 3.077899 4.110919 4294639364 311520
2.4301515 3.078192 4.1252832 4294639364 315616
2.3240931 2.9799721 4.0070467 4294965504 319712
2.3473997 3.0472455 4.1110716 4294901504 323808
2.277298 2.9934294 4.0511823 4294965760 327904
2.2302074 2.9688749 4.0301805 4294965248 332000
2.4062331 3.2445335 4.4176059 4293328664 336096
2.2889352 3.1267154 4.2697988 4294311689 340192
2.1965172 3.0402126 4.1638007 4294966784 344288
2.0476315 2.8721812 3.9450023 4294962944 348384
2.1363175 3.0373495 4.1837177 4294966528 352480
2.1970351 3.1667612 4.3741927 4294049549 356576
1.9995211 2.9223769 4.0477786 4294963968 360672
1.865943 2.7658305 3.8413777 4294960640 364768
1.8358034 2.7603087 3.8439951 4294960640 368864
1.9027441 2.9027262 4.0529795 4294963456 372960
1.8981051 2.9385478 4.1136522 4294964224 377056
1.8726809 2.9427843 4.1301241 4294964480 381152
1.8690517 2.9819221 4.1953979 4294965248 385248
1.7403737 2.8196752 3.9763687 4294961664 389344
1.8789641 3.0921535 4.3706245 4294704899 393440
1.7607231 2.9439292 4.1705079 4294964224 397536
1.7177716 2.9188154 4.144114 4294963712 401632
1.7175953 2.9667556 4.2213826 4294964736 405728
1.681699 2.9535723 4.2116556 4294964480 409824
1.670481 2.9840214 4.2640667 4294964992 413920
1.6580726 3.0133667 4.3149438 4294965760 418016
1.5901676 2.9411066 4.2200375 4294964224 422112
1.5653961 2.9474576 4.2376013 4294964224 426208
1.5119826 2.8991227 4.1762919 4294963200 430304
1.4393113 2.8113649 4.0576811 4294961408 434400
1.5606054 3.1063478 4.4919386 4294704899 438496
1.5188714 3.0819817 4.4650168 4294901504 442592
1.4775835 3.0575738 4.4377623 4294966528 446688
1.4595572 3.0812874 4.4802074 4294901504 450784
1.399402 3.0152066 4.3918409 4294965504 454880
1.4231994 3.1310387 4.5679998 4294508294 458976
1.3570818 3.0497859 4.456429 4294966272 463072
1.2824675 2.9454474 4.3105674 4294963968 467168
1.2536886 2.9440553 4.3149958 4294963968 471264
1.2162539 2.9218054 4.2886686 4294963456 475360
1.1823536 2.9071989 4.2733402 4294963200 479456
1.1408819 2.8728232 4.2287016 4294962432 483552
1.1183367 2.8855848 4.2532721 4294962688 487648
1.09637 2.9005232 4.2809734 4294962944 491744
1.0757288 2.9198351 4.3150635 4294963456 495840
1.1177509 3.114799 4.6090059 4294704899 499936
0.99918306 2.8606749 4.2381921 4294962176 504032
0.99774563 2.9370258 4.3565454 4294963712 508128
0.96583438 2.9254982 4.3445253 4294963456 512224
0.94822496 2.9578958 4.3976331 4294964224 516320
0.92042243 2.9595122 4.4048958 4294964224 520416
0.93068486 3.0875101 4.6003294 4294966784 524512
0.80470663 2.7571096 4.1123047 4294959872 528608
0.78061539 2.7652309 4.1285639 4294960128 532704
0.78425568 2.8756042 4.2975278 4294962432 536800
0.76957917 2.9244008 4.3745575 4294963456 540896
0.73834687 2.9115944 4.3593459 4294962944 544992
0.70547533 2.8910656 4.3323874 4294962688 549088
0.69233757 2.9530315 4.4289613 4294963968 553184
0.63718385 2.8334346 4.253016 4294961408 557280
0.61440188 2.8535554 4.2865286 4294961920 561376
0.58421272 2.8395455 4.2686386 4294961408 565472
0.58667725 2.9906232 4.4989262 4294964736 569568
0.55667424 2.9832032 4.4907699 4294964480 573664
0.52758974 2.9801688 4.4890575 4294964480 577760
0.51810461 3.0938246 4.6630697 4294966784 581856
0.47897524 3.03351 4.5747676 4294965504 585952
0.43380991 2.9247184 4.4130688 4294963200 590048
0.40218288 2.8984902 4.3756943 4294962688 594144
0.37447008 2.8986757 4.3780298 4294962688 598240
0.35584241 2.9748425 4.4950294 4294964224 602336
0.31284738 2.8428304 4.2972879 4294961664 606432
0.27702457 2.7570541 4.1691661 4294959616 610528
0.27268347 2.9995182 4.5373397 4294964736 614624
0.24802187 3.0492101 4.613903 4294965760 618720
0.20699091 2.8840733 4.3652 4294962432 622816
0.1897449 3.0505142 4.6182036 4294966016 626912
0.15499116 2.9448321 4.4591098 4294963712 631008
0.12705095 2.9504054 4.4682999 4294963712 635104
0.093173385 2.7818909 4.2136564 4294960128 639200
0.064971827 2.7158222 4.1139989 4294958848 643296
0.039094139 2.7235584 4.1259952 4294959104 647392
0.014449501 3.0199459 4.5751548 4294965248 651488
-0.013426808 2.8062029 4.251339 4294960640 655584
-0.044265572 3.0838349 4.6717882 4294966528 659680
-0.070506953 2.9471905 4.4644818 4294963712 663776
-0.10199256 3.0452065 4.6124935 4294965760 667872
-0.13122588 3.0473566 4.6151295 4294965760 671968
-0.15609285 2.9657643 4.4908056 4294964224 676064
-0.17816423 2.8643324 4.3363414 4294961920 680160
-0.20770249 2.8939881 4.3802066 4294962688 684256
-0.24300408 2.9875207 4.5205579 4294964480 688352
-0.26837742 2.9521515 4.4656887 4294963712 692448
-0.28986311 2.8848281 4.3623838 4294962432 696544
-0.32836246 2.9838154 4.5104041 4294964480 700640
-0.36743596 3.0717645 4.64148 4294966272 704736
-0.39097407 3.0264289 4.5709829 4294965504 708832
-0.43381351 3.1264491 4.719831 4294704899 712928
-0.43021661 2.9004927 4.3765144 4294962688 717024
-0.47028241 2.9784553 4.4917412 4294964480 721120
-0.4806757 2.8703206 4.3262 4294962176 725216
-0.50537133 2.854665 4.3000097 4294961920 729312
-0.56776667 3.0426471 4.5802536 4294965760 733408
-0.59185958 3.0170403 4.5386667 4294965248 737504
-0.59508181 2.8923743 4.3480554 4294962688 741600
-0.62577534 2.9063787 4.3658781 4294962944 745696
-0.65623754 2.9181626 4.3801937 4294963200 749792
-0.65416098 2.7901967 4.1847415 4294960384 753888
-0.70547533 2.8910656 4.3323874 4294962688 757984
-0.72830516 2.8719959 4.3000574 4294962176 762080
-0.72877032 2.7693272 4.1425858 4294960128 766176
-0.77795762 2.8525112 4.2630162 4294961920 770272
-0.81041229 2.8707824 4.2861547 4294962176 774368
-0.86695272 2.9703789 4.4304018 4294964224 778464
-0.84420973 2.8006322 4.1728868 4294960896 782560
-0.91597927 2.9452257 4.3836317 4294963712 786656
-0.91828471 2.8645 4.2587776 4294962176 790752
-1.0111703 3.06282 4.5484552 4294966272 794848
-0.99699938 2.934829 4.3532867 4294963712 798944
-1.0118407 2.8969138 4.2918816 4294962944 803040
-1.1342984 3.1609118 4.6772394 4294311689 807136
-1.1040374 2.9966729 4.4286175 4294964992 811232
-1.0407841 2.7534668 4.0639281 4294959872 815328
-1.1651113 3.0062747 4.4311657 4294965248 819424
-1.170504 2.9474134 4.3384962 4294963968 823520
-1.248808 3.0705986 4.5135245 4294966528 827616
-1.2189921 2.9283834 4.2983246 4294963712 831712
-1.20468 2.8289676 4.1463156 4294961664 835808
-1.3440145 3.0868025 4.5174365 4294901504 839904
-1.3877916 3.1188004 4.5572748 4294639364 844000
-1.3594815 2.9908593 4.3634868 4294964992 848096
-1.3694221 2.9506106 4.2977529 4294964224 852192
-1.4408915 3.041882 4.4229121 4294966016 856288
-1.4775835 3.0575738 4.4377623 4294966528 860384
-1.4703451 2.9835157 4.3223643 4294964992 864480
-1.4545501 2.8952475 4.1866765 4294962944 868576
-1.4493881 2.8310478 4.0860896 4294961664 872672
-1.5079917 2.8914704 4.1652684 4294962944 876768
-1.683802 3.1704021 4.5581317 4294115084 880864
-1.6362424 3.0263243 4.3423119 4294966016 884960
-1.6809094 3.0548701 4.3743739 4294966528 889056
-1.7432169 3.1139514 4.4497323 4294573829 893152
-1.7382529 3.0528979 4.3532891 4294966528 897248
-1.7283343 2.9853046 4.247776 4294965248 901344
-1.8686223 3.1751387 4.5080404 4294049549 905440
-1.574869 2.6331811 3.7302876 4294957568 909536
-1.8531342 3.0496459 4.3105416 4294966528 913632
-1.8822666 3.0495636 4.3005624 4294966528 917728
-1.9284408 3.0766728 4.3287067 4294835969 921824
-1.9745249 3.1028247 4.3547368 4294573829 925920
-1.9248192 2.9799054 4.1715479 4294965248 930016
-1.9769139 3.0158761 4.2109666 4294966016 934112
-2.1345375 3.2094843 4.4695148 4293721874 938208
-1.92242 2.8495445 3.9576459 4294962432 942304
-2.0545471 3.0027995 4.1591716 4294965760 946400
-2.202311 3.1743655 4.3846965 4293984014 950496
-2.087435 2.9678497 4.0879869 4294964992 954592
-2.0700736 2.9036601 3.9882393 4294963712 958688
-2.1479149 2.9729416 4.0716681 4294965248 962784
-2.2397108 3.0594742 4.1779752 4294835969 966880
-2.3941739 3.2282729 4.3954659 4293459734 970976
-2.3449736 3.1216528 4.2375731 4294311689 975072
-2.1850197 2.8721328 3.8870244 4294963200 979168
-2.2481668 2.9184277 3.9372821 4294964224 983264
-2.5004675 3.206121 4.3111396 4293590804 987360
-2.4583297 3.1138842 4.1731167 4294311689 991456
-2.3548484 2.9470856 3.9362011 4294964992 995552
-2.6589539 3.2882922 4.3768134 4292869919 999648
-2.3047326 2.8168952 3.7363036 4294962176 1003744
-2.6576128 3.2106419 4.2435336 4293525269 1007840
-2.4882123 2.9716363 3.9135969 4294965504 1011936
-2.6295061 3.104897 4.0742946 4294311689 1016032
-2.4768498 2.8919644 3.7809672 4294963968 1020128
-2.7394068 3.1631825 4.1195035 4293852944 1024224
-2.7419736 3.1315436 4.0621266 4294115084 1028320
-2.5838501 2.9190524 3.7712898 4294964480 1032416
-2.6942194 3.0111864 3.8744731 4294966528 1036512
-2.6642554 2.9461873 3.7751985 4294965248 1040608
-2.8785901 3.1498709 4.0193377 4293852944 1044704
-2.8238046 3.0579023 3.8854854 4294639364 1048800
-3.0918067 3.3137825 4.192595 4292476709 1052896
-2.7273138 2.8934445 3.644856 4294964224 1056992
-2.8893983 3.0345943 3.8050249 4294770434 1061088
-2.9632826 3.0812242 3.8454535 4294377224 1065184
-2.9868691 3.075151 3.820029 4294442759 1069280
-2.9313369 2.9885337 3.6955359 4294966528 1073376
-3.0659606 3.0955834 3.8102746 4294180619 1077472
-3.0542123 3.0542123 3.7407711 4294508294 1081568
-3.1120741 3.0825758 3.7557452 4294311689 1085664
-3.0637183 3.0061839 3.6432662 4294901504 1089760
-3.0355432 2.9508302 3.5579457 4294965760 1093856
-3.3905296 3.265533 3.9171391 4292738849 1097952
-3.1782424 3.0331171 3.6190937 4294639364 1102048
-3.4530551 3.265559 3.8747849 4292673314 1106144
-3.4525397 3.2357883 3.8178585 4292935454 1110240
-3.4368196 3.1924233 3.7444236 4293263129 1114336
-3.6027851 3.3171017 3.867089 4292214569 1118432
-3.6393213 3.3214767 3.8484588 4292149034 1122528
-3.593673 3.2514184 3.7439508 4292738849 1126624
-3.8365314 3.4413521 3.9378061 4291100474 1130720
-3.5007846 3.1134639 3.5399482 4293852944 1134816
-3.2853618 2.8972178 3.2728505 4294964992 1138912
-3.6509457 3.192668 3.5830665 4293132059 1143008
-3.5127852 3.0463572 3.3962646 4294311689 1147104
-3.4838877 2.9964299 3.318156 4294770434 1151200
-3.6859844 3.1443703 3.4572763 4293459734 1155296
-3.703392 3.1336393 3.4207146 4293525269 1159392
-3.8553615 3.2360263 3.5057492 4292673314 1163488
-3.6026311 2.9998002 3.224647 4294639364 1167584
-3.7484763 3.0965674 3.3031924 4293787409 1171680
-3.9110987 3.2055671 3.393486 4292869919 1175776
-3.7691813 3.0652096 3.2192152 4294049549 1179872
-4.1893687 3.3806105 3.5201259 4291362614 1183968
-4.1675057 3.337198 3.4450428 4291690289 1188064
-4.202487 3.3396189 3.4185591 4291624754 1192160
-4.0472455 3.1919785 3.2395711 4292869919 1196256
-4.1843047 3.2753546 3.2941084 4292149034 1200352
-4.1878953 3.2537923 3.2423794 4292280104 1204448
-4.0625567 3.1331158 3.0918148 4293328664 1208544
-4.0429106 3.0951219 3.0240996 4293590804 1212640
-4.1392589 3.1458368 3.0428312 4293132059 1216736
-4.331738 3.2683511 3.1291571 4292083499 1220832
nan nan nan 4278190080 1224928
-4.5417333 3.378015 3.1669972 4291100474 1229024
nan nan nan 4278190080 1233120
nan nan nan 4278190080 1237216
nan nan nan 4278190080 1241312
nan nan nan 4278190080 1245408
nan nan nan 4278190080 1249504
nan nan nan 4278190080 1253600
nan nan nan 4278190080 1257696
nan nan nan 4278190080 1261792
nan nan nan 4278190080 1265888
nan nan nan 4278190080 1269984
nan nan nan 4278190080 1274080
nan nan nan 4278190080 1278176
nan nan nan 4278190080 1282272
nan nan nan 4278190080 1286368
nan nan nan 4278190080 1290464
nan nan nan 4278190080 1294560
nan nan nan 4278190080 1298656
nan nan nan 4278190080 1302752
nan nan nan 4278190080 1306848
nan nan nan 4278190080 225
nan nan nan 4278190080 4321
nan nan nan 4278190080 8417
nan nan nan 4278190080 12513
nan nan nan 4278190080 16609
nan nan nan 4278190080 20705
nan nan nan 4278190080 24801
nan nan nan 4278190080 28897
nan nan nan 4278190080 32993
nan nan nan 4278190080 37089
nan nan nan 4278190080 41185
nan nan nan 4278190080 45281
nan nan nan 4278190080 49377
nan nan nan 4278190080 53473
nan nan nan 4278190080 57569
nan nan nan 4278190080 61665
nan nan nan 4278190080 65761
nan nan nan 4278190080 69857
nan nan nan 4278190080 73953
nan nan nan 4278190080 78049
nan nan nan 4278190080 82145
nan nan nan 4278190080 86241
nan nan nan 4278190080 90337
nan nan nan 4278190080 94433
nan nan nan 4278190080 98529
nan nan nan 4278190080 102625
nan nan nan 4278190080 106721
nan nan nan 4278190080 110817
nan nan nan 4278190080 114913
nan nan nan 4278190080 119009
nan nan nan 4278190080 123105
nan nan nan 4278190080 127201
3.805747 3.1490693 3.2809377 4293590804 131297
4.463459 3.7224896 3.9085314 4288806749 135393
4.2002468 3.5308847 3.7354815 4290445124 139489
3.9059863 3.3098919 3.5286558 4292280104 143585
3.7349827 3.1906128 3.4278264 4293328664 147681
3.5500205 3.0573645 3.3093162 4294442759 151777
3.6267695 3.1491704 3.433145 4293721874 155873
3.6859963 3.2271585 3.5430207 4293066524 159969
3.6521733 3.2243037 3.5635364 4293132059 164065
3.9449501 3.5121708 3.9072912 4290707264 168161
3.5629475 3.1990721 3.5821421 4293328664 172257
3.2572384 2.9496882 3.3241296 4294965504 176353
3.3616421 3.070591 3.4823349 4294442759 180449
3.1613364 2.912847 3.3240981 4294964736 184545
3.3618894 3.124928 3.5881472 4294049549 188641
3.3193758 3.1128368 3.5961077 4294180619 192737
3.4211454 3.2370479 3.7621894 4293132059 196833
3.3991842 3.2453752 3.7940331 4293066524 200929
3.3225722 3.2011998 3.7633696 4293459734 205025
3.2632635 3.1730351 3.7509151 4293721874 209121
3.2595088 3.1988666 3.8013444 4293525269 213217
3.1226342 3.0933137 3.6947436 4294442759 217313
3.161109 3.161109 3.7949014 4293852944 221409
3.1498902 3.1800327 3.8377597 4293721874 225505
3.3574321 3.4223099 4.1516752 4291755824 229601
3.2062624 3.3001044 4.02315 4292738849 233697
3.0929353 3.2148244 3.9371505 4293459734 237793
2.7667999 2.9044516 3.5731447 4294963968 241889
3.1847432 3.3767879 4.1734014 4292214569 245985
2.8228743 3.0234845 3.7541068 4294966528 250081
2.9137306 3.1528058 3.932642 4294049549 254177
2.8973866 3.1676092 3.9682639 4293918479 258273
2.928864 3.2355514 4.0706248 4293394199 262369
2.7384739 3.0572381 3.8624539 4294901504 266465
2.8090618 3.1695831 4.0210094 4293984014 270561
2.6585646 3.0322006 3.8624928 4294966528 274657
2.790391 3.2173359 4.1149182 4293590804 278753
2.9216275 3.4058752 4.3734269 4292083499 282849
2.7218468 3.2084341 4.1361213 4293721874 286945
2.5073547 2.9889936 3.8682199 4294965504 291041
2.6221027 3.1615067 4.1063752 4294115084 295137
2.6979654 3.2905819 4.2893844 4293066524 299233
2.5868583 3.1919713 4.1756015 4293918479 303329
2.4705153 3.0844896 4.0491285 4294770434 307425
2.390624 3.020489 3.9788198 4294966016 311521
2.4287784 3.1058924 4.1052809 4294639364 315617
2.2519567 2.9151096 3.866061 4294963712 319713
2.2619514 2.9644208 3.9444859 4294964736 323809
2.4406345 3.2388296 4.3237104 4293590804 327905
2.408534 3.2369468 4.3348846 4293590804 332001
2.2094691 3.0077291 4.0400262 4294965504 336097
2.1692834 2.9916263 4.0303111 4294964992 340193
2.2758639 3.1801805 4.2968588 4294115084 344289
2.1832893 3.0917718 4.1894522 4294835969 348385
2.1136811 3.0339231 4.1227546 4294966016 352481
2.0857844 3.0351758 4.1360192 4294966016 356577
2.0816185 3.0714791 4.1970568 4294966528 360673
2.0225103 3.0265932 4.1469879 4294965760 364769
2.0386662 3.094666 4.2516446 4294835969 368865
1.9843981 3.056263 4.2099934 4294966272 372961
1.9701689 3.0793011 4.2527642 4294966784 377057
1.9963481 3.1671388 4.3852687 4294311689 381153
1.9642465 3.1637864 4.3916688 4294311689 385249
1.6599978 2.7151902 3.7783263 4294958848 389345
1.8460038 3.0669827 4.2778468 4294966272 393441
1.7550623 2.9625452 4.1415067 4294964224 397537
1.7596973 3.0186679 4.2293386 4294965248 401633
1.667312 2.9074614 4.0824337 4294962944 405729
1.7005709 3.0152979 4.2429485 4294965248 409825
1.7263103 3.1132605 4.3900533 4294835969 413921
1.7351942 3.1837041 4.4987125 4294246154 418017
1.6353028 3.05353 4.3235793 4294966016 422113
1.5296999 2.9078078 4.1254997 4294962944 426209
1.5658379 3.0311172 4.3088856 4294965504 430305
1.6360281 3.226186 4.5950232 4293918479 434401
1.4109277 2.8352926 4.0459166 4294961152 438497
1.4905902 3.053539 4.3654399 4294965760 442593
1.4514532 3.0322437 4.3429074 4294965248 446689
1.4277271 3.0429337 4.3660336 4294965504 450785
1.4124219 3.0723817 4.4160366 4294966272 454881
1.3089877 2.9073308 4.1860032 4294962688 458977
1.3845025 3.1411831 4.5303397 4294639364 463073
1.3154936 3.0502105 4.4061341 4294965760 467169
1.2197707 2.8918159 4.1835942 4294962432 471265
1.2173103 2.9523273 4.2774014 4294963456 475361
1.212368 3.0095253 4.3665228 4294964736 479457
1.1471356 2.9162123 4.237061 4294962688 483553
1.1524882 3.0021605 4.3679032 4294964480 487649
1.1234705 3.0006618 4.3715262 4294964480 491745
1.1393348 3.1220732 4.554297 4294901504 495841
1.1741705 3.3033328 4.8247914 4293394199 499937
1.0319375 2.9827235 4.3618712 4294964224 504033
0.92332435 2.743964 4.0175161 4294959104 508129
0.97651404 2.9861515 4.3771982 4294964224 512225
0.9364205 2.9490256 4.3276744 4294963456 516321
0.91409737 2.9673007 4.3592954 4294963712 520417
0.9238748 3.0942473 4.5506582 4294966272 524513
0.83665144 2.8939912 4.2605581 4294962176 528609
0.84161168 3.0098317 4.4355474 4294964480 532705
0.80901027 2.9947574 4.4176164 4294964224 536801
0.77553117 2.9752195 4.3929105 4294963968 540897
0.71760386 2.8568759 4.2219911 4294961408 544993
0.7169103 2.9660406 4.3871379 4294963712 549089
0.64866436 2.7932281 4.1349893 4294960128 553185
0.66134036 2.968996 4.3987265 4294963712 557281
0.61645621 2.8904948 4.285727 4294962176 561377
0.64366645 3.1584563 4.6864905 4294639364 565473
0.57796562 2.9744084 4.416513 4294963712 569569
0.55475312 3.0013568 4.4595203 4294964224 573665
0.54797548 3.1249413 4.6461101 4294901504 577761
0.50199836 3.0263329 4.502223 4294964736 581857
0.46483627 2.9721351 4.4241204 4294963712 585953
0.47049046 3.2023704 4.7693982 4294311689 590049
0.40045753 2.9136736 4.3416214 4294962432 594145
0.37812635 2.9549875 4.4052463 4294963456 598241
0.34526646 2.9140489 4.346107 4294962432 602337
0.34080338 3.1265006 4.6648388 4294901504 606433
0.29171467 2.9310377 4.374814 4294962944 610529
0.28216156 3.1334784 4.6785407 4294901504 614625
0.25309786 3.1413913 4.6917701 4294835969 618721
0.21210815 2.9836545 4.4573803 4294963968 622817
0.18095635 2.9370608 4.3888021 4294962944 626913
0.15874295 3.0449781 4.5509772 4294965248 631009
0.12120571 2.8416004 4.2477241 4294960896 635105
0.10201827 3.0751219 4.5974169 4294965760 639201
0.064835869 2.7360735 4.090939 4294958848 643297
0.042600796 2.9962559 4.4802608 4294964224 647393
0.013662878 2.8828673 4.3108568 4294961920 651489
-0.014073871 2.9695868 4.4405317 4294963712 655585
-0.041383632 2.9106486 4.352253 4294962432 659681
-0.073898658 3.1185236 4.6627727 4294966784 663777
-0.10666551 3.2152035 4.8068438 4294246154 667873
-0.13438849 3.1506636 4.709722 4294770434 671969
-0.15033925 2.88378 4.3100529 4294961920 676065
-0.19424383 3.1527269 4.7110686 4294704899 680161
-0.20989539 2.9525285 4.4108801 4294963200 684257
-0.24199237 3.0035524 4.4859033 4294964224 688353
-0.27225238 3.0234344 4.5142355 4294964736 692449
-0.30709136 3.085537 4.6054163 4294966016 696545
-0.3095459 2.8397472 4.2369938 4294960896 700641
-0.3741045 3.1574419 4.7091112 4294704899 704737
-0.39874625 3.1161282 4.645472 4294966784 708833
-0.41328683 3.0070181 4.4807119 4294964480 712929
-0.41857651 2.8490207 4.2431426 4294961152 717025
-0.46970186 3.0032451 4.4704289 4294964480 721121
-0.47969961 2.8919034 4.3022342 4294962176 725217
-0.5692088 3.2460287 4.8261409 4293984014 729313
-0.5824703 3.1513135 4.6823316 4294704899 733409
-0.62609345 3.2220905 4.7842808 4294115084 737505
-0.62352359 3.0596156 4.5398316 4294965504 741601
-0.63256037 2.9660053 4.3976865 4294963712 745697
-0.6502108 2.9190316 4.3247018 4294962688 749793
-0.71569645 3.0818765 4.5622935 4294966016 753889
-0.63132107 2.6119363 3.863374 4294956288 757985
-0.77447689 3.0832949 4.556601 4294966016 762081
-0.76916724 2.9508052 4.356863 4294963456 766177
-0.82909316 3.0690992 4.5272794 4294965760 770273
-0.79787147 2.8534048 4.2050228 4294961408 774369
-0.8514027 2.9450159 4.3356771 4294963200 778465
-0.80300945 2.6894443 3.9553211 4294957824 782561
-0.93186009 3.0249612 4.4440055 4294964992 786657
-0.93606848 2.947917 4.3260474 4294963456 790753
-0.94642842 2.8941505 4.2423401 4294962176 794849
-1.0191622 3.0287776 4.4345202 4294964992 798945
-1.0622209 3.070255 4.4898758 4294966016 803041
-1.11747 3.1438158 4.5918036 4294704899 807137
-1.1013435 3.0179672 4.4024329 4294964992 811233
-1.1524901 3.0781698 4.4844437 4294966272 815329
-1.1733112 3.0564032 4.4468217 4294965760 819425
-1.1453942 2.9117854 4.230629 4294962688 823521
-1.2016706 2.9829707 4.3279948 4294964224 827617
-1.0759217 2.6094193 3.7805882 4294956288 831713
-1.2043778 2.8553226 4.1307993 4294961664 835809
-1.2997591 3.0137272 4.3534331 4294964992 839905
-1.3328638 3.0240242 4.3613687 4294965248 844001
-1.3000324 2.8874402 4.1573648 4294962176 848097
-1.4362924 3.1243062 4.4906693 4294770434 852193
-1.4826597 3.160012 4.534019 4294508294 856289
-1.4287246 2.9847615 4.2749014 4294964480 860385
-1.5186129 3.1109447 4.4475088 4294901504 864481
-1.5301068 3.0747862 4.38767 4294966272 868577
-1.5258032 3.0088267 4.2854409 4294964992 872673
-1.6097132 3.1160502 4.4296222 4294835969 876769
-1.5221587 2.8934729 4.1051617 4294962432 880865
-1.6223148 3.029278 4.2892404 4294965504 884961
-1.6895469 3.0999515 4.3803663 4294901504 889057
-1.874751 3.3809612 4.7675419 4292673314 893153
-1.8558458 3.2906175 4.6303616 4293394199 897249
-1.7392823 3.0329633 4.2586536 4294965504 901345
-1.6525631 2.8348846 3.9718471 4294961408 905441
-1.8143681 3.0626535 4.2814536 4294966272 909537
-1.8426943 3.0614843 4.2701774 4294966272 913633
-1.819949 2.9768159 4.1423917 4294964480 917729
-1.9772096 3.1846659 4.4206519 4294180619 921825
-1.9721122 3.1286893 4.3320308 4294639364 925921
-1.9666557 3.0738101 4.2451811 4294966528 930017
-1.9102683 2.9420922 4.0527234 4294963712 934113
-1.9396247 2.9443223 4.0450931 4294963968 938209
-2.0481672 3.0649879 4.1995959 4294966528 942305
-2.0994546 3.0977967 4.2330184 4294835969 946401
-2.1588509 3.1415002 4.2809067 4294442759 950497
-2.1487947 3.0843244 4.1912436 4294901504 954593
-2.1306984 3.0172977 4.0885372 4294965504 958689
-2.145031 2.9973614 4.0498447 4294965248 962785
-2.251802 3.1054261 4.1836219 4294704899 966881
-2.2134864 3.0131977 4.0473719 4294965504 970977
-2.3865716 3.2074306 4.2953568 4293852944 975073
-2.4159317 3.2060478 4.2799478 4293852944 979169
-2.4811456 3.2516878 4.326726 4293459734 983265
-2.4012437 3.1083584 4.1223502 4294639364 987361
-2.7197881 3.4780321 4.5971646 4291624754 991457
-2.7290583 3.4480915 4.5420909 4291821359 995553
-2.726387 3.4039505 4.4684978 4292149034 999649
-2.4632118 3.0394018 3.9760168 4294966272 1003745
-2.5104206 3.0618424 3.9912145 4294966784 1007841
-2.4397113 2.9415948 3.8207388 4294964224 1011937
-2.5767248 3.0716887 3.9752402 4294835969 1016033
-2.4736514 2.9158683 3.7589633 4294963968 1020129
-2.6493278 3.0884428 3.9658172 4294704899 1024225
-2.6575153 3.0641296 3.9189696 4294835969 1028321
-2.7775905 3.1679544 4.0354195 4293984014 1032417
-2.7571132 3.1109674 3.9466481 4294442759 1036513
-2.8628616 3.196105 4.0378957 4293721874 1040609
-2.7894876 3.0815806 3.8769157 4294639364 1044705
-2.8131313 3.075496 3.8528681 4294704899 1048801
-3.0208309 3.2686939 4.0771947 4293132059 1052897
-2.8643129 3.067868 3.8092155 4294770434 1056993
-2.9010653 3.076004 3.8016596 4294639364 1061089
-3.2159157 3.3759115 4.1531487 4292149034 1065185
-2.96298 3.0797477 3.771724 4294573829 1069281
-3.0992472 3.1899569 3.8888695 4293656339 1073377
-2.9635611 3.020828 3.6646292 4294966528 1077473
-3.2791767 3.3105564 3.9952796 4292673314 1081569
-2.9821377 2.9821377 3.5800467 4294965760 1085665
-3.3771436 3.3454332 3.9958825 4292345639 1089761
-3.0719032 3.0147514 3.5825527 4294966528 1093857
-3.1880171 3.099869 3.6644239 4294311689 1097953
-3.2277055 3.1097984 3.6559169 4294246154 1102049
-3.463341 3.3066289 3.8656423 4292607779 1106145
