# .PCD v0.7 - Point Cloud Data file format
VERSION 0.7
FIELDS x y z rgba label
SIZE 4 4 4 4 4
TYPE F F F U U
COUNT 1 1 1 1 1
WIDTH 1032
HEIGHT 1
VIEWPOINT 0 0 0 1 0 0 0
POINTS 1032
DATA ascii
1.7829278 2.2623706 4.8698883 4294770434 409795
1.9189463 2.4765887 5.3408818 4292411174 413891
1.8302132 2.4031496 5.191072 4293263129 417987
1.7823025 2.3816607 5.1530175 4293459734 422083
1.7849689 2.428201 5.2621121 4293000989 426179
1.8545737 2.5691803 5.5766716 4291428149 430275
1.7942663 2.5320957 5.5055881 4291821359 434371
1.6524276 2.3763483 5.1756501 4293590804 438467
1.6305748 2.3904543 5.2150025 4293394199 442563
1.5676697 2.3437438 5.1210341 4293918479 446659
1.5607574 2.3805492 5.2089462 4293525269 450755
1.4874133 2.3154578 5.0736814 4294311689 454851
1.4248428 2.2647502 4.9694533 4294835969 458947
1.5054795 2.4443808 5.3709064 4292869919 463043
1.4589726 2.4209325 5.3264794 4293132059 467139
1.5015891 2.5476398 5.6125841 4291755824 471235
1.3441538 2.3329566 5.1462054 4294115084 475331
1.3348185 2.3712656 5.2372665 4293721874 479427
1.3023851 2.3693993 5.2395186 4293721874 483523
1.2005605 2.2380819 4.9550247 4294966272 487619
1.1808405 2.2570496 5.0028329 4294966784 491715
1.195471 2.3443654 5.2022781 4294049549 495811
1.2573526 2.5314701 5.6236253 4291952429 499907
1.0483496 2.168504 4.8218932 4294964224 504003
1.0600278 2.2544253 5.0176001 4294966528 508099
1.0782712 2.3596947 5.2566352 4293852944 512195
0.96439284 2.1734824 4.8460627 4294964224 516291
1.0717609 2.489783 5.5560269 4292476709 520387
0.94216591 2.2582071 5.0438142 4294966784 524483
0.9166103 2.2689862 5.0725684 4294901504 528579
0.98050153 2.5094192 5.6151061 4292214569 532675
0.87314588 2.3130705 5.1802435 4294442759 536771
0.92451692 2.5382192 5.6892457 4291952429 540867
0.78092819 2.2249086 4.991025 4294965760 544963
0.76106554 2.253351 5.0587835 4294966528 549059
0.75405222 2.3237119 5.2206764 4294311689 553155
0.74944156 2.4077804 5.4134755 4293394199 557251
0.6909343 2.3184686 5.2163029 4294377224 561347
0.63248867 2.2210648 5.0004892 4294965504 565443
0.64297181 2.3680182 5.3347411 4293852944 569539
0.57810819 2.2383163 5.0456152 4294966016 573635
0.53406733 2.1795721 4.9160404 4294964224 577731
0.54543746 2.353173 5.3104267 4293984014 581827
0.40324783 1.8451643 4.1658416 4294954752 585923
0.41927019 2.0422516 4.6127286 4294960384 590019
0.40171507 2.0916889 4.7262373 4294961920 594115
0.3614918 2.0216765 4.5697098 4294959872 598211
0.3098892 1.8717307 4.232214 4294955520 602307
0.30921966 2.0300944 4.5917315 4294960128 606403
0.28616923 2.057693 4.6554923 4294960896 610499
0.26279271 2.0885105 4.7264509 4294961664 614595
0.22523712 2.0006356 4.5286489 4294959104 618691
0.20436375 2.0572617 4.6578026 4294960896 622787
0.17552476 2.0387876 4.6168208 4294960128 626883
0.14358585 1.9710422 4.4641123 4294958336 630979
0.11478804 1.9258882 4.3624167 4294957056 635075
0.090929113 1.9614708 4.4434814 4294958080 639171
0.067704856 2.0446866 4.6323609 4294960384 643267
0.037895974 1.9074306 4.3216257 4294956544 647363
0.012931566 1.9526665 4.4242311 4294957824 651459
-0.012321889 1.8606052 4.2156448 4294955008 655555
-0.037190039 1.8718985 4.2411213 4294955520 659651
-0.065244809 1.9703932 4.4640446 4294958336 663747
-0.087522544 1.8879863 4.2770109 4294955776 667843
-0.11887902 1.9945258 4.5178905 4294958848 671939
-0.13935062 1.912904 4.3324385 4294956544 676035
-0.16968553 1.9709626 4.4632316 4294958336 680131
-0.18359052 1.8481445 4.1843448 4294954752 684227
-0.22078326 1.9610749 4.4390993 4294958080 688323
-0.23770194 1.8891048 4.2751818 4294956032 692419
-0.25159091 1.8090584 4.0929613 4294953728 696515
-0.29225254 1.9187014 4.3397799 4294956800 700611
-0.32057965 1.936301 4.3782153 4294957312 704707
-0.3310428 1.8513875 4.1847963 4294954752 708803
-0.36963367 1.9246442 4.3487949 4294957056 712899
-0.39806646 1.9389689 4.3794494 4294957312 716995
-0.40412945 1.8491983 4.1749492 4294954752 721091
-0.43661174 1.8836678 4.2508898 4294955776 725187
-0.4690384 1.9141837 4.3174553 4294956800 729283
-0.46498647 1.8003322 4.058311 4294953472 733379
-0.52405703 1.9300638 4.3481045 4294957056 737475
-0.4848161 1.7024938 3.8329823 4294950656 741571
-0.5371263 1.8023572 4.0551085 4294953472 745667
-0.50071532 1.6086811 3.6168396 4294947840 749763
-0.62767911 1.9342765 4.3457332 4294957312 753859
-0.59006405 1.7470524 3.9221408 4294951936 757955
-0.61964953 1.7654166 3.9602699 4294952448 762051
-0.62299931 1.7104163 3.833782 4294950912 766147
-0.65349036 1.7311761 3.8770602 4294951424 770243
-0.6546123 1.6753637 3.7488136 4294949888 774339
-0.75483638 1.8685294 4.1773033 4294955520 778435
-0.82989925 1.9891236 4.4428029 4294958848 782531
-0.83598047 1.9420469 4.3337369 4294957568 786627
-0.82396811 1.8570027 4.14043 4294955264 790723
-0.88623512 1.939442 4.3204484 4294957568 794819
-0.8465842 1.8004818 4.0072727 4294953472 798915
-0.86085254 1.7806677 3.9594989 4294952960 803011
-0.89536929 1.8026769 4.0046215 4294953728 807107
-0.95104545 1.8650372 4.1386223 4294955520 811203
-0.85860187 1.6411252 3.637614 4294949120 815299
nan nan nan 4278190080 819395
-0.92465806 1.6822093 3.7199161 4294950144 823491
nan nan nan 4278190080 827587
-1.0405157 1.8059525 3.9837017 4294953728 831683
-1.2156622 2.0625281 4.5438571 4294961152 835779
-1.2039548 1.9977711 4.3954496 4294959360 839875
-1.3082098 2.1240826 4.6671324 4294962944 843971
-1.2238905 1.9453417 4.2685876 4294957824 848067
-1.1797259 1.8364806 4.0241361 4294954752 852163
-1.1795076 1.799047 3.9365451 4294953728 856259
-1.2346137 1.8458085 4.0330553 4294955008 860355
-1.3024913 1.9094776 4.1657062 4294956800 864451
-1.2974204 1.8658141 4.0637145 4294955776 868547
-1.2264606 1.7307996 3.7633133 4294951680 872643
-1.1600484 1.6070395 3.4882455 4294948096 876739
-1.2822105 1.7442683 3.7799735 4294952192 880835
-1.2574967 1.6803718 3.6356921 4294950400 884931
-1.3395966 1.7589486 3.7995257 4294952704 889027
-1.3561544 1.7502507 3.7744992 4294952448 893123
-1.2844138 1.6298025 3.5082476 4294948864 897219
-1.3562387 1.6924963 3.6363208 4294950656 901315
-1.3945208 1.7119727 3.6711195 4294951424 905411
-1.4928129 1.803318 3.8595014 4294953984 909507
-1.3919156 1.6549547 3.5350292 4294949632 913603
-1.4897441 1.743809 3.7174208 4294952448 917699
-1.434052 1.6529912 3.5167143 4294949632 921795
-1.5481805 1.7577087 3.7318137 4294952704 925891
-1.5722945 1.7586405 3.7260132 4294952704 929987
-1.5479468 1.7061311 3.6071286 4294951424 934083
-1.5904497 1.7277547 3.6450281 4294951936 938179
-1.5925747 1.7055233 3.5903232 4294951424 942275
-1.7026922 1.7979476 3.7765698 4294953984 946371
-1.7487736 1.8211366 3.8164158 4294954752 950467
-1.6708404 1.7163054 3.5879221 4294951680 954563
-1.7950273 1.8191216 3.7934351 4294954752 958659
-1.7055663 1.7055663 3.5477018 4294951424 962755
-1.7935648 1.7701195 3.67259 4294953216 966851
-1.8048981 1.7583201 3.6386988 4294952960 970947
-1.8225051 1.7528552 3.6179235 4294952960 975043
-1.758854 1.6703582 3.4385462 4294950400 979139
-1.7522902 1.6434524 3.3741231 4294949632 983235
-1.8794329 1.7410698 3.5648994 4294952704 987331
-1.9587755 1.7925763 3.6603761 4294953984 991427
-1.9228333 1.7386098 3.5404084 4294952448 995523
-1.9103177 1.7068518 3.4660416 4294951680 999619
-1.8620098 1.6442308 3.3294356 4294949888 1003715
-2.0024502 1.7478033 3.5290368 4294952960 1007811
-2.0145941 1.738307 3.4992163 4294952704 1011907
-1.9561437 1.6688006 3.3487148 4294950656 1016003
-1.9333537 1.6309296 3.2622993 4294949632 1020099
-2.4018497 2.0037529 3.995193 4294960640 1024195
-1.9603313 1.6175411 3.2146955 4294949120 1028291
-2.2417693 1.8297684 3.6245637 4294955520 1032387
-2.3048837 1.8611628 3.6745045 4294956288 1036483
-2.2572625 1.8034214 3.5485508 4294954752 1040579
-2.1951935 1.7354671 3.4032507 4294952704 1044675
-2.3336492 1.8258083 3.5681298 4294955520 1048771
-2.1552477 1.6689353 3.2502501 4294950912 1052867
-2.3414462 1.7947124 3.4823461 4294954496 1056963
-2.0687993 1.5697925 3.034445 4294948096 1061059
-2.2537568 1.6931207 3.2603714 4294951680 1065155
-2.3636546 1.7581863 3.3725958 4294953728 1069251
-2.3707118 1.7462316 3.3366003 4294953216 1073347
-2.594624 1.8926967 3.6022079 4294957568 1077443
-2.5758262 1.8610035 3.5277882 4294956800 1081539
-2.6667538 1.9084352 3.6031489 4294958080 1085635
-2.5964501 1.840676 3.4610927 4294956288 1089731
-2.4687176 1.7338436 3.2468204 4294952960 1093827
-2.8059585 1.9525332 3.6406384 4294959616 1097923
-2.4425724 1.6841481 3.1262734 4294951680 1102019
-2.8646588 1.9573008 3.6170218 4294959872 1106115
-2.775857 1.8796161 3.457675 4294957568 1110211
-2.7199454 1.8253856 3.3424938 4294956032 1114307
-2.7177181 1.8078213 3.294971 4294955520 1118403
-2.8319609 1.8673629 3.3875344 4294957312 1122499
-3.0465722 1.9914824 3.5952539 4294960896 1126595
-3.1539621 2.0439839 3.6713986 4294962688 1130691
-3.0011692 1.9284109 3.4461305 4294959104 1134787
-3.0113611 1.918631 3.4109242 4294958848 1138883
-2.9560907 1.8676556 3.3029518 4294957568 1142979
-3.1373091 1.9656999 3.4579866 4294960384 1147075
-3.1535945 1.959641 3.4289308 4294960384 1151171
-3.2276566 1.9892904 3.4616344 4294961152 1155267
-3.2291219 1.9740787 3.4154632 4294960896 1159363
-3.3602238 2.0377259 3.5053282 4294962688 1163459
-3.2031972 1.9270231 3.296417 4294959360 1167555
-3.4693675 2.0706501 3.5221438 4294963712 1171651
-3.3941879 2.0098917 3.3973899 4294962176 1175747
-3.5381536 2.0788374 3.4914823 4294964224 1179843
-3.3658798 1.9623469 3.2753849 4294960640 1183939
-3.4702764 2.0077078 3.3303506 4294962176 1188035
-3.3882048 1.9453191 3.206044 4294960384 1192131
-3.4762008 1.9807786 3.242691 4294961408 1196227
-3.287864 1.8594288 3.0230312 4294957824 1200323
-3.753613 2.1070466 3.4010203 4294965248 1204419
-3.8752494 2.1592717 3.4600382 4294901504 1208515
-3.9882762 2.2059696 3.5089679 4294377224 1212611
-3.6695824 2.0149343 3.1813157 4294962688 1216707
-4.0276175 2.1955602 3.4404316 4294442759 1220803
-3.8694825 2.0942361 3.2566786 4294965248 1224899
-3.9962342 2.1474426 3.3136876 4294966784 1228995
-3.9924903 2.1302686 3.2612975 4294966272 1233091
-4.0001254 2.1193647 3.2177951 4294966016 1237187
-3.9915457 2.1000814 3.1615322 4294965504 1241283
-4.1403022 2.1632721 3.2276673 4294704899 1245379
-3.8793802 2.0130117 2.9767663 4294962944 1249475
-4.221096 2.1753771 3.1888061 4294508294 1253571
-3.9179525 2.0054605 2.9129128 4294962944 1257667
-4.038537 2.0532629 2.9530993 4294964480 1261763
-3.6144819 1.8253739 2.5997834 4294957568 1265859
-4.3013654 2.1578279 3.043628 4294639364 1269955
nan nan nan 4278190080 1274051
nan nan nan 4278190080 1278147
nan nan nan 4278190080 1282243
nan nan nan 4278190080 1286339
nan nan nan 4278190080 1290435
nan nan nan 4278190080 1294531
nan nan nan 4278190080 1298627
nan nan nan 4278190080 1302723
nan nan nan 4278190080 1306819
nan nan nan 4278190080 196
nan nan nan 4278190080 4292
nan nan nan 4278190080 8388
nan nan nan 4278190080 12484
nan nan nan 4278190080 16580
nan nan nan 4278190080 20676
nan nan nan 4278190080 24772
nan nan nan 4278190080 28868
nan nan nan 4278190080 32964
nan nan nan 4278190080 37060
nan nan nan 4278190080 41156
nan nan nan 4278190080 45252
nan nan nan 4278190080 49348
nan nan nan 4278190080 53444
nan nan nan 4278190080 57540
nan nan nan 4278190080 61636
nan nan nan 4278190080 65732
nan nan nan 4278190080 69828
nan nan nan 4278190080 73924
nan nan nan 4278190080 78020
nan nan nan 4278190080 82116
nan nan nan 4278190080 86212
nan nan nan 4278190080 90308
nan nan nan 4278190080 94404
nan nan nan 4278190080 98500
nan nan nan 4278190080 102596
4.8178215 2.7607741 4.4117098 4288413539 106692
4.3625488 2.5187545 4.0537882 4291166009 110788
nan nan nan 4278190080 114884
nan nan nan 4278190080 118980
nan nan nan 4278190080 123076
4.9176416 2.9276233 4.8348618 4286644094 127172
4.3379321 2.6027594 4.3255434 4290314054 131268
4.271636 2.5832424 4.3204613 4290576194 135364
4.2563438 2.5945044 4.3653131 4290445124 139460
4.0307779 2.4767432 4.1905813 4291821359 143556
4.3421583 2.689677 4.5764031 4289462099 147652
4.239429 2.6474802 4.5306296 4289920844 151748
3.8906155 2.4496469 4.2160392 4292214569 155844
3.8972893 2.4742126 4.2812409 4291952429 159940
3.7828887 2.4216819 4.2126212 4292542244 164036
3.9524958 2.5516112 4.4619851 4291100474 168132
3.7971029 2.4721563 4.345542 4292017964 172228
3.7923582 2.4902611 4.3998885 4291821359 176324
3.4811277 2.3056819 4.09447 4293918479 180420
3.8285327 2.5579281 4.5652599 4291100474 184516
3.9265618 2.6465373 4.7456894 4290117449 188612
3.8922341 2.6467192 4.7681642 4290117449 192708
3.7356706 2.5630386 4.6387343 4291100474 196804
3.834723 2.6548083 4.8267832 4290117449 200900
3.6731312 2.5661602 4.6867032 4291100474 204996
3.7607703 2.651603 4.8643627 4290182984 209092
3.4330959 2.4430869 4.501637 4292542244 213188
3.370177 2.4208314 4.4793658 4292804384 217284
3.4085281 2.4715867 4.59196 4292214569 221380
3.120208 2.2841716 4.2609129 4294377224 225476
3.3705893 2.4913051 4.6658878 4292083499 229572
3.0534725 2.278933 4.2850351 4294442759 233668
3.1826129 2.3987181 4.5279303 4293132059 237764
3.3390458 2.5416617 4.8163548 4291559219 241860
3.1366773 2.4116163 4.5874534 4293000989 245956
3.2277565 2.5068364 4.7866268 4291952429 250052
3.344841 2.6244137 5.0298991 4290641729 254148
3.1191537 2.472697 4.7562017 4292345639 258244
3.0218885 2.420675 4.6721673 4292935454 262340
3.218735 2.6056426 5.0463014 4290903869 266436
2.9306316 2.3977895 4.6594009 4293263129 270532
2.9597521 2.4477949 4.7724252 4292673314 274628
2.9560139 2.4714215 4.8343749 4292476709 278724
2.850395 2.4094498 4.7284646 4293132059 282820
2.8642514 2.448215 4.8199825 4292738849 286916
2.7214594 2.352448 4.646184 4293787409 291012
2.7990701 2.4471869 4.8485651 4292804384 295108
2.6504292 2.3440211 4.658679 4293918479 299204
2.4552374 2.1967914 4.379077 4294965248 303300
2.6953738 2.4401906 4.8780618 4292869919 307396
2.6621926 2.4390147 4.8893785 4292935454 311492
2.6974199 2.5012438 5.0279822 4292214569 315588
2.5350583 2.3795331 4.796361 4293590804 319684
2.7909808 2.6522985 5.3605728 4290576194 323780
2.6037788 2.5055232 5.0774512 4292214569 327876
2.5052564 2.4414284 4.9606471 4292935454 331972
2.40587 2.3748264 4.8379326 4293721874 336068
2.5649505 2.5649505 5.2387443 4291624754 340164
2.4361997 2.468467 5.0545526 4292673314 344260
2.3569398 2.4202132 4.968246 4293197594 348356
2.2951446 2.388824 4.9159956 4293590804 352452
2.3815863 2.5129843 5.1841788 4292214569 356548
2.4037673 2.5718629 5.3184872 4291559219 360644
2.249836 2.4413114 5.0601325 4293000989 364740
2.2086051 2.4310546 5.0498133 4293132059 368836
2.2211077 2.4805071 5.1635742 4292607779 372932
2.0776567 2.3546777 4.9119992 4294049549 377028
2.2773716 2.6198335 5.4765234 4291100474 381124
2.0688472 2.4162872 5.0614138 4293328664 385220
2.0932229 2.4826598 5.21099 4292607779 389316
2.0930583 2.5215585 5.3031693 4292214569 393412
1.9847687 2.4293568 5.1192708 4293263129 397508
1.9067982 2.371871 5.0077887 4293918479 401604
1.9135244 2.4195805 5.1182642 4293394199 405700
1.8509514 2.3797948 5.0436029 4293787409 409796
1.8600115 2.4323227 5.1645117 4293263129 413892
1.8963281 2.5229409 5.3667293 4292280104 417988
1.7831807 2.4143951 5.1444044 4293459734 422084
1.7805303 2.4542444 5.2376618 4293000989 426180
1.7542964 2.4624527 5.2634277 4292935454 430276
1.710804 2.4462898 5.2369456 4293132059 434372
1.688134 2.4598522 5.2747445 4293000989 438468
1.5754267 2.3401971 5.0264506 4294311689 442564
1.5547967 2.3552861 5.0670738 4294180619 446660
1.5237726 2.3549211 5.0743737 4294180619 450756
1.6721898 2.6375778 5.6914873 4291100474 454852
1.5862042 2.5546236 5.5201135 4292017964 458948
1.4845515 2.4423268 5.2846203 4293197594 463044
1.4651092 2.4633155 5.3371243 4293000989 467140
1.4820187 2.54774 5.527236 4292083499 471236
1.2926944 2.2733593 4.938271 4294966528 475332
1.3455697 2.4220257 5.2677832 4293459734 479428
1.2581283 2.3192003 5.0503097 4294639364 483524
1.2272218 2.3180857 5.0539136 4294639364 487620
1.1433572 2.21435 4.8333459 4294964736 491716
1.1007071 2.1871192 4.779315 4294963968 495812
1.1725769 2.3920569 5.2329259 4293852944 499908
1.1512479 2.4128892 5.2841911 4293590804 504004
1.1482831 2.4744694 5.4247241 4292935454 508100
1.1206542 2.4849291 5.4525661 4292804384 512196
0.98382688 2.2466495 4.9340401 4294965504 516292
0.97653389 2.2986104 5.0524516 4294901504 520388
1.0609438 2.5765779 5.6681128 4291886894 524484
0.97577322 2.4474311 5.3883162 4293263129 528580
0.96255261 2.4961109 5.4998527 4292738849 532676
0.87468982 2.3478515 5.1776457 4294377224 536772
0.91571426 2.5473506 5.6222835 4292214569 540868
0.88364762 2.5509074 5.6346731 4292149034 544964
0.78560722 2.3568215 5.2100091 4294311689 549060
0.79018688 2.4673183 5.4583616 4293066524 553156
0.70656961 2.3001096 5.0921192 4294901504 557252
0.68112838 2.3158364 5.1304841 4294704899 561348
0.67318171 2.3952744 5.309989 4293852944 565444
0.65505761 2.4444833 5.422514 4293328664 569540
0.57004011 2.236311 4.9637327 4294965248 573636
0.54835325 2.2675149 5.0358896 4294966016 577732
0.45350516 1.9824654 4.405232 4294957824 581828
0.4073455 1.8886019 4.1988258 4294955264 585924
0.43616438 2.1526823 4.7882714 4294962688 590020
0.41439676 2.1863003 4.8652716 4294963712 594116
0.35756493 2.0262012 4.5109224 4294959104 598212
0.33203095 2.0320294 4.5256376 4294959360 602308
0.3164309 2.1049533 4.6895142 4294961408 606404
0.2908448 2.1190121 4.7221875 4294961920 610500
0.25656414 2.0660167 4.6052866 4294960384 614596
0.22766389 2.048975 4.5683713 4294959872 618692
0.20049016 2.0449996 4.5604587 4294959616 622788
0.17334965 2.0401921 4.5505676 4294959616 626884
0.14298262 1.9887582 4.4365406 4294958080 630980
0.11650874 1.9806486 4.4190264 4294957824 635076
0.092902742 2.0305886 4.53092 4294959360 639172
0.065745771 2.0118206 4.4893937 4294958848 643268
0.038806569 1.979135 4.4166865 4294957824 647364
0.013010446 1.9905982 4.4423838 4294958080 651460
-0.013208222 2.020858 4.5099139 4294959104 655556
-0.038918819 1.9848598 4.429462 4294958080 659652
-0.065852672 2.0150919 4.4966936 4294958848 663748
-0.091967352 2.0101435 4.4853005 4294958592 667844
-0.11665305 1.983102 4.4245 4294957824 671940
-0.14457001 2.0108373 4.485795 4294958592 676036
-0.16216356 1.9085404 4.2569237 4294955776 680132
-0.19343574 1.9730445 4.3999949 4294957568 684228
-0.22321236 2.0089111 4.4790454 4294958592 688324
-0.24407606 1.9654546 4.3811278 4294957312 692420
-0.28523436 2.0781362 4.6310959 4294960640 696516
-0.28693831 1.9087634 4.2524333 4294955776 700612
-0.31306541 1.9159602 4.2671337 4294956032 704708
-0.35064155 1.9869686 4.4235787 4294958080 708804
-0.37287965 1.9672616 4.3778348 4294957568 712900
-0.40470228 1.9974015 4.4428759 4294958336 716996
-0.43396133 2.0120025 4.4731755 4294958848 721092
-0.43013823 1.8803186 4.1782517 4294955008 725188
-0.45587423 1.8851016 4.1865935 4294955264 729284
-0.51109916 2.0050812 4.4504933 4294958592 733380
-0.54471368 2.0327122 4.5090957 4294959360 737476
-0.59833276 2.1289513 4.7195878 4294962176 741572
-0.64292753 2.1859536 4.8427424 4294963712 745668
-0.65713984 2.1392 4.735888 4294962432 749764
-0.71354842 2.2280185 4.9289675 4294964992 753860
-0.74314195 2.2294259 4.9283872 4294964992 757956
-0.77135313 2.2267363 4.9186153 4294964992 762052
-0.80829394 2.2485268 4.9627466 4294965504 766148
-0.84762186 2.2751956 5.0174193 4294966272 770244
-0.80674374 2.0920641 4.6095886 4294961152 774340
-0.88987654 2.2319853 4.9139862 4294964992 778436
-0.87952852 2.1359978 4.6988978 4294962432 782532
-0.82336569 1.9380761 4.2599807 4294956800 786628
-0.85169768 1.9449216 4.2713923 4294957056 790724
-0.87799293 1.9468539 4.2718925 4294957056 794820
-0.90849018 1.9577323 4.291893 4294957312 798916
-0.91913199 1.9263999 4.2187872 4294956544 803012
-0.96609795 1.9708399 4.31146 4294957824 807108
-0.83752126 1.6641656 3.6365516 4294949120 811204
-0.86876643 1.6825477 3.6725607 4294949632 815300
nan nan nan 4278190080 819396
nan nan nan 4278190080 823492
nan nan nan 4278190080 827588
nan nan nan 4278190080 831684
-1.1370661 1.9547316 4.2407241 4294957312 835780
-1.313713 2.2087703 4.7856154 4294964736 839876
-1.3313522 2.190289 4.7392697 4294964224 843972
-1.3656597 2.1994309 4.7526016 4294964480 848068
-1.2394605 1.9550252 4.2186441 4294957568 852164
-1.2625394 1.9511973 4.2044311 4294957312 856260
-1.3532093 2.049911 4.4101014 4294960128 860356
-1.3994075 2.0787315 4.4648552 4294961152 864452
-1.3649927 1.9889895 4.2650576 4294958592 868548
-1.3214172 1.8895032 4.0449934 4294955776 872644
-1.2045976 1.6908572 3.6141624 4294949888 876740
-1.262729 1.7405183 3.7144818 4294951424 880836
-1.3370862 1.8103909 3.8574398 4294953472 884932
-1.3602636 1.8097421 3.8496327 4294953472 889028
-1.3829266 1.8084425 3.8398366 4294953472 893124
-1.4067987 1.8087412 3.8333442 4294953472 897220
-1.3909554 1.7588115 3.7205055 4294951936 901316
-1.4603602 1.8165456 3.8353167 4294953728 905412
-1.4333706 1.7544457 3.6970618 4294951936 909508
-1.4907249 1.7959126 3.7770407 4294953216 913604
-1.5184389 1.8009392 3.7800896 4294953216 917700
-1.5753417 1.8399029 3.8540576 4294954496 921796
-1.5664833 1.8020446 3.7670102 4294953472 925892
-1.6542852 1.8748566 3.9110634 4294955520 929988
-1.6079894 1.7957838 3.7382128 4294953216 934084
-1.6293229 1.7934273 3.725327 4294953216 938180
-1.6624696 1.8039564 3.7390802 4294953472 942276
-1.6944714 1.8129659 3.749125 4294953728 946372
-1.7634588 1.8607532 3.8386543 4294955264 950468
-1.8576424 1.9334645 3.978905 4294957312 954564
-1.8085041 1.8570545 3.812186 4294955008 958660
-1.813836 1.8378603 3.7632916 4294954496 962756
-1.9023784 1.9023784 3.8854842 4294956544 966852
-1.8482234 1.8243754 3.7165685 4294954240 970948
-1.8803869 1.832479 3.7233455 4294954496 975044
-1.9085466 1.8365259 3.7217262 4294954752 979140
-1.9663728 1.8686649 3.776767 4294955520 983236
-1.9958662 1.8734205 3.7762032 4294955776 987332
-2.0029316 1.8572639 3.7334583 4294955264 991428
-2.0262096 1.8563478 3.7213335 4294955264 995524
-2.0370362 1.8441807 3.6866088 4294955008 999620
-2.0546932 1.8384097 3.6646802 4294954752 1003716
-2.2453892 1.9858067 3.9467373 4294959104 1007812
-2.1558795 1.8848547 3.7344267 4294956288 1011908
-2.2601638 1.9537008 3.8586414 4294958336 1016004
-2.1975803 1.8783786 3.6981037 4294956032 1020100
-2.1747036 1.8382854 3.6075735 4294955008 1024196
-2.140265 1.7894019 3.5002689 4294953472 1028292
-2.1760893 1.7996848 3.5088155 4294953984 1032388
-2.2716789 1.8586464 3.6117344 4294955520 1036484
-2.2128801 1.7913792 3.4693322 4294953728 1040580
-2.2459981 1.7991505 3.4725566 4294953984 1044676
-2.2722244 1.8012972 3.4647725 4294953984 1048772
-2.2427602 1.7597041 3.3726139 4294952960 1052868
-2.4492795 1.9022323 3.6321781 4294957056 1056964
-2.4635706 1.894102 3.6030211 4294956800 1061060
-2.4117653 1.8358214 3.4788136 4294955264 1065156
-2.4471085 1.8443724 3.4815218 4294955520 1069252
-2.4538543 1.8314133 3.443572 4294955008 1073348
-2.5419145 1.8788064 3.5187578 4294956544 1077444
-2.5736022 1.8840246 3.5144756 4294956800 1081540
-2.600986 1.8860229 3.5040414 4294956800 1085636
-2.7288167 1.9601359 3.6269219 4294959104 1089732
-2.6357892 1.8757011 3.4561708 4294956544 1093828
-2.7003858 1.9039587 3.49281 4294957312 1097924
-2.8143299 1.9661757 3.5909224 4294959360 1102020
-2.7057879 1.8732377 3.4057875 4294956544 1106116
-2.6894062 1.845198 3.3395452 4294955776 1110212
-2.7431536 1.8653445 3.3604884 4294956544 1114308
-2.6860402 1.8104147 3.2463799 4294954752 1118404
-2.830658 1.8912256 3.3753633 4294957312 1122500
-2.8977649 1.9192989 3.4083242 4294958080 1126596
-3.0314863 1.9906327 3.5171261 4294960384 1130692
-3.1402609 2.0445104 3.5938284 4294961920 1134788
-3.0295966 1.9558156 3.4201214 4294959360 1138884
-3.0408084 1.9466263 3.3862412 4294959104 1142980
-3.2980874 2.0938065 3.6230068 4294963456 1147076
-3.1521595 1.9846931 3.4158161 4294960384 1151172
-3.1472073 1.9653989 3.3633847 4294959872 1155268
-3.1252396 1.9358771 3.2938356 4294958848 1159364
-3.1965601 1.9641514 3.3232901 4294959872 1163460
-3.4932082 2.1293261 3.5826402 4294964736 1167556
-3.3166325 2.0057106 3.3545418 4294961152 1171652
-3.5415149 2.1249089 3.5314004 4294964736 1175748
-3.4525888 2.0554323 3.3944705 4294962688 1179844
-3.5387406 2.0904529 3.4311278 4294963712 1183940
-3.6296716 2.1277385 3.470494 4294964992 1188036
-3.6829364 2.1425447 3.4715269 4294965504 1192132
-3.5191855 2.0318317 3.2701144 4294962176 1196228
-3.5447538 2.0312634 3.2459533 4294962176 1200324
-3.4894843 1.9847254 3.1487725 4294960896 1204420
-3.6175017 2.0423534 3.2166736 4294962688 1208516
-3.6954613 2.0710828 3.2379632 4294963456 1212612
-3.7167857 2.0678844 3.208885 4294963456 1216708
-3.6087308 1.99327 3.069778 4294961408 1220804
-3.7531917 2.0582018 3.1455843 4294963200 1224900
-3.8222306 2.0811434 3.156069 4294963968 1228996
-4.0794687 2.2055078 3.3176007 4294573829 1233092
-4.0890298 2.1951632 3.2746749 4294704899 1237188
-4.4521446 2.3734429 3.5097713 4292607779 1241284
-4.0817509 2.1609271 3.1669707 4294966528 1245380
-4.3335438 2.2784612 3.3101528 4293656339 1249476
-4.1540356 2.1691723 3.1237962 4294901504 1253572
-4.8112931 2.4953487 3.5590658 4291100474 1257668
-4.0338855 2.0780623 2.9347301 4294964224 1261764
nan nan nan 4278190080 1265860
nan nan nan 4278190080 1269956
nan nan nan 4278190080 1274052
nan nan nan 4278190080 1278148
nan nan nan 4278190080 1282244
nan nan nan 4278190080 1286340
nan nan nan 4278190080 1290436
nan nan nan 4278190080 1294532
nan nan nan 4278190080 1298628
nan nan nan 4278190080 1302724
nan nan nan 4278190080 1306820
nan nan nan 4278190080 197
nan nan nan 4278190080 4293
nan nan nan 4278190080 8389
nan nan nan 4278190080 12485
nan nan nan 4278190080 16581
nan nan nan 4278190080 20677
nan nan nan 4278190080 24773
nan nan nan 4278190080 28869
nan nan nan 4278190080 32965
nan nan nan 4278190080 37061
nan nan nan 4278190080 41157
nan nan nan 4278190080 45253
nan nan nan 4278190080 49349
nan nan nan 4278190080 53445
nan nan nan 4278190080 57541
nan nan nan 4278190080 61637
nan nan nan 4278190080 65733
nan nan nan 4278190080 69829
nan nan nan 4278190080 73925
nan nan nan 4278190080 78021
nan nan nan 4278190080 82117
nan nan nan 4278190080 86213
nan nan nan 4278190080 90309
nan nan nan 4278190080 94405
nan nan nan 4278190080 98501
nan nan nan 4278190080 102597
4.1205521 2.3920808 3.7576091 4292935454 106693
nan nan nan 4278190080 110789
nan nan nan 4278190080 114885
4.1350088 2.4556565 3.9382877 4292280104 118981
3.962419 2.3713319 3.8277962 4293263129 123077
nan nan nan 4278190080 127173
4.3127971 2.6215041 4.2839117 4290510659 131269
4.1743221 2.5573912 4.2058177 4291231544 135365
4.4250479 2.7325993 4.5223351 4289265494 139461
3.9484043 2.4578421 4.0908132 4292411174 143557
3.9009078 2.4479382 4.0970006 4292542244 147653
3.7690837 2.3845224 4.013485 4293263129 151749
4.3591719 2.7805419 4.7068324 4288872284 155845
3.9177678 2.519726 4.2890906 4291755824 159941
3.8266304 2.4817059 4.2468648 4292214569 164037
3.6790204 2.4061103 4.1391892 4293066524 168133
4.005887 2.6421809 4.568985 4290445124 172229
3.6324444 2.4164331 4.2001591 4293000989 176325
3.2952707 2.2111125 3.8628509 4294966016 180421
3.8270466 2.5903592 4.5481873 4291100474 184517
3.9645531 2.7070737 4.7764063 4289855309 188613
3.7650523 2.5937026 4.5977545 4291100474 192709
3.697171 2.5697825 4.5764117 4291362614 196805
3.5224154 2.4704723 4.4196811 4292542244 200901
3.4258456 2.4246852 4.3574057 4293066524 204997
3.2764173 2.3402979 4.2245698 4293984014 209093
3.6821878 2.6546004 4.8131118 4290510659 213189
3.4612582 2.5187559 4.5867891 4292017964 217285
3.4834971 2.5589671 4.6790848 4291624754 221381
3.4385769 2.5501406 4.6818061 4291755824 225477
3.3390076 2.5002232 4.608532 4292280104 229573
2.9829497 2.2554009 4.1737266 4294966784 233669
3.3205011 2.535358 4.7101855 4291952429 237765
3.3669331 2.5963912 4.8422775 4291297079 241861
2.9905052 2.329288 4.3608003 4294246154 245957
3.1711237 2.4950466 4.6888499 4292411174 250053
3.0054533 2.3889501 4.5062809 4293590804 254149
2.9921384 2.4030125 4.5496092 4293459734 258245
3.1369655 2.5457048 4.8367386 4291886894 262341
2.8939695 2.3733613 4.5246525 4293852944 266437
2.9664121 2.4587908 4.7033124 4292935454 270533
2.9613681 2.4811463 4.7618942 4292673314 274629
2.9203513 2.4735217 4.7629128 4292804384 278725
2.8558247 2.4455957 4.7244864 4293066524 282821
2.7264357 2.3608801 4.5754857 4294049549 286917
2.8018701 2.4536152 4.7703252 4293000989 291013
2.8621254 2.5350254 4.9441261 4292149034 295109
2.6050763 2.3340278 4.5663328 4294377224 299205
2.6279597 2.3820689 4.6747193 4293852944 303301
2.650707 2.4311218 4.784934 4293328664 307397
2.7467713 2.5493987 5.0317879 4292017964 311493
2.5983784 2.440901 4.8309884 4293263129 315589
2.7469282 2.6121097 5.1839514 4291362614 319685
2.6401172 2.5417278 5.057857 4292149034 323781
2.611022 2.5453358 5.078517 4292149034 327877
2.5718801 2.5391173 5.0794754 4292214569 331973
2.5597396 2.5597396 5.1341009 4292017964 336069
2.301594 2.3316803 4.6887455 4294508294 340165
2.2970192 2.3578675 4.7534924 4294246154 344261
2.3709676 2.4664428 4.9849062 4293066524 348357
2.5164621 2.6534126 5.3761349 4291034939 352453
2.4510043 2.620039 5.3215318 4291428149 356549
2.2446992 2.4330657 4.9537139 4293459734 360645
2.2511723 2.4746931 5.0504932 4293000989 364741
2.2332191 2.4902804 5.093925 4292869919 368837
2.0892766 2.36378 4.8455124 4294246154 372933
2.0275578 2.3279369 4.7821107 4294639364 377029
2.2019317 2.5661609 5.2824521 4292083499 381125
2.0153651 2.3845923 4.9187703 4294049549 385221
1.9785123 2.3772821 4.913619 4294115084 389317
2.0579381 2.5116568 5.2017202 4292673314 393413
2.0249121 2.510891 5.2103305 4292673314 397509
1.8949587 2.3879561 4.9647832 4294049549 401605
1.8762758 2.4034936 5.0065808 4293852944 405701
1.9377849 2.5240057 5.267457 4292607779 409797
1.8593224 2.4632049 5.1501026 4293263129 413893
1.8018669 2.4286032 5.0870314 4293656339 417989
1.747663 2.3972368 5.0303607 4293984014 422085
1.6425692 2.2936776 4.8212452 4294966528 426181
1.6742399 2.3807998 5.012218 4294180619 430277
1.6985822 2.4605629 5.1881204 4293328664 434373
1.5582652 2.3002963 4.8575368 4294966528 438469
1.5607202 2.3486567 4.9673843 4294573829 442565
1.7118971 2.6271689 5.5654235 4291559219 446661
1.7235246 2.6984475 5.7255082 4290772799 450757
1.6540102 2.6430058 5.616631 4291362614 454853
1.5526752 2.5333123 5.3914623 4292542244 458949
1.4739897 2.4566495 5.2353845 4293394199 463045
1.3551804 2.3082743 4.9257073 4294966784 467141
1.3489248 2.349251 5.0196652 4294573829 471237
1.2888898 2.2962978 4.9127645 4294966272 475333
1.1628546 2.1204996 4.5423083 4294961408 479429
1.3207159 2.4663973 5.2896929 4293328664 483525
1.1965467 2.2896881 4.9165559 4294966016 487621
1.1613731 2.2786436 4.8985376 4294965760 491717
1.1621237 2.3393397 5.0347338 4294704899 495813
1.1816765 2.4421315 5.2617521 4293590804 499909
1.174879 2.494606 5.3805871 4293066524 504005
1.0918688 2.3836572 5.1466665 4294246154 508101
1.0793123 2.4245422 5.2402821 4293852944 512197
1.0453554 2.4183595 5.2321062 4293918479 516293
1.0375975 2.4742708 5.3577456 4293328664 520389
1.0227096 2.5161903 5.4530096 4292869919 524485
0.97292084 2.4721758 5.3619051 4293328664 528581
0.93022877 2.4438214 5.3045082 4293656339 532677
0.88430387 2.404686 5.2234678 4294049549 536773
0.91184151 2.5697351 5.5860238 4292280104 540869
0.84065771 2.4585273 5.3482571 4293525269 544965
0.80304015 2.4406121 5.3133926 4293721874 549061
0.72691804 2.2994344 5.0097694 4294966272 553157
0.68151605 2.2475529 4.9002447 4294964736 557253
0.6785174 2.3371155 5.09902 4294835969 561349
0.68606204 2.4730144 5.3990741 4293328664 565445
0.63363326 2.395443 5.2330165 4294180619 569541
0.56258702 2.2359228 4.8874698 4294964224 573637
0.51046503 2.1384344 4.6770449 4294961664 577733
0.54569811 2.4166629 5.2884359 4293984014 581829
0.43842322 2.0592606 4.508637 4294959360 585925
0.4183327 2.0916636 4.5817962 4294960384 590021
0.40871066 2.1844881 4.7873011 4294962944 594117
0.37030464 2.125823 4.6607132 4294961152 598213
0.34836492 2.1598625 4.7372103 4294962176 602309
0.3162095 2.1309772 4.675559 4294961408 606405
0.27436629 2.0250845 4.4447069 4294958336 610501
0.26529494 2.1642482 4.7515926 4294962432 614597
0.22965755 2.0939364 4.5984836 4294960384 618693
0.20416687 2.1097243 4.634285 4294960896 622789
0.17035134 2.0311122 4.4625554 4294958592 626885
0.14567412 2.052681 4.5107698 4294959104 630981
0.11664164 2.0088282 4.4150772 4294957824 635077
0.090086721 1.9947774 4.3847318 4294957568 639173
0.065283373 2.0237846 4.448885 4294958336 643269
0.040244397 2.0792937 4.5711489 4294959872 647365
0.013030237 2.0196867 4.4402232 4294958336 651461
-0.013185167 2.0437009 4.4930177 4294958848 655557
-0.039571252 2.0445147 4.4946899 4294958848 659653
-0.067073055 2.0792649 4.570847 4294959872 663749
-0.094013289 2.081723 4.5758471 4294959872 667845
-0.11918987 2.0527143 4.5115318 4294959104 671941
-0.14438133 2.0344644 4.4707389 4294958592 676037
-0.17583758 2.096525 4.6062741 4294960384 680133
-0.19703545 2.0360329 4.4724121 4294958592 684229
-0.22475383 2.049226 4.5002952 4294959104 688325
-0.25007144 2.0400565 4.4789305 4294958848 692421
-0.27302027 2.0151496 4.4229012 4294958080 696517
-0.27603835 1.8602585 4.0815778 4294953728 700613
-0.32299531 2.0025709 4.3922234 4294957824 704709
-0.33959013 1.9494989 4.2741351 4294956288 708805
-0.36875334 1.9709231 4.3192739 4294956800 712901
-0.39366648 1.9683324 4.3116388 4294956800 716997
-0.405471 1.904485 4.1697645 4294955008 721093
-0.45973197 2.0359559 4.4553261 4294958848 725189
-0.4883396 2.045747 4.4743247 4294959104 729285
-0.51032603 2.0282187 4.4334526 4294958592 733381
-0.55046207 2.0810151 4.5461268 4294960128 737477
-0.56992036 2.0543642 4.4850793 4294959360 741573
-0.6129474 2.1112633 4.6062651 4294960896 745669
-0.62633258 2.0655649 4.5034637 4294959616 749765
-0.68664992 2.1720557 4.7322497 4294962688 753861
-0.70344245 2.1379135 4.6543951 4294961664 757957
-0.76006997 2.222846 4.8355584 4294963968 762053
-0.76984298 2.1695576 4.7161283 4294962432 766149
-0.8107385 2.2046399 4.7889271 4294963456 770245
-0.7493422 1.9686109 4.2730265 4294956800 774341
-0.84024984 2.135061 4.6307364 4294961664 778437
-0.80446887 1.9792488 4.2893667 4294957312 782533
-0.81733316 1.9490252 4.220387 4294956288 786629
-0.83621293 1.9345225 4.1853275 4294956032 790725
-0.91100281 2.0464556 4.4231048 4294959104 794821
-0.91833425 2.0048141 4.3286886 4294958080 798917
-0.92769963 1.9697732 4.2485814 4294957056 803013
-0.96290666 1.990007 4.2876167 4294957568 807109
-0.9961645 2.0052662 4.3157396 4294958080 811205
-0.83645767 1.6411512 3.5280819 4294947840 815301
nan nan nan 4278190080 819397
nan nan nan 4278190080 823493
nan nan nan 4278190080 827589
nan nan nan 4278190080 831685
-1.2902758 2.2471097 4.8014188 4294964992 835781
-1.2333447 2.1007519 4.4828682 4294960896 839877
-1.3524746 2.2541242 4.803781 4294965248 843973
-1.2868339 2.099571 4.4683628 4294960896 848069
-1.188498 1.8991462 4.0358605 4294955264 852165
-1.2227566 1.9144169 4.0619688 4294955520 856261
-1.3731623 2.1073284 4.4641871 4294961152 860357
nan nan nan 4278190080 864453
nan nan nan 4278190080 868549
nan nan nan 4278190080 872645
-0.9468872 1.346491 2.8347223 4294939648 876741
-1.1444467 1.5981013 3.3591633 4294946816 880837
-1.3316953 1.8266617 3.833066 4294953216 884933
-1.3804773 1.8606433 3.8973639 4294954240 889029
-1.4362987 1.9027889 3.9783771 4294955520 893125
-1.3615506 1.7734481 3.701086 4294951936 897221
-1.481304 1.8975382 3.9526536 4294955264 901317
-1.4194301 1.7887127 3.7189004 4294952192 905413
-1.4446664 1.7913862 3.7172918 4294952448 909509
-1.5142558 1.8481075 3.8274891 4294953984 913605
-1.5518678 1.8646475 3.8540514 4294954496 917701
-1.5013189 1.7763697 3.6641715 4294951936 921797
-1.6352994 1.9058001 3.9230964 4294955776 925893
-1.6293131 1.8706927 3.8428276 4294954752 929989
-1.6679523 1.8870994 3.8683648 4294955264 934085
-1.7150419 1.9124568 3.911974 4294956032 938181
-1.7339007 1.9060611 3.8899968 4294955776 942277
-1.7466307 1.8932011 3.8545516 4294955520 946373
-1.7208203 1.8394976 3.7361827 4294953984 950469
-1.7478228 1.8429424 3.734024 4294953984 954565
-1.8776369 1.9532464 3.9476895 4294957312 958661
-1.7988417 1.8464931 3.7225549 4294954240 962757
-1.9853261 2.0112779 4.0444527 4294958848 966853
-1.8662221 1.8662221 3.7431042 4294954752 970949
-1.919215 1.8947663 3.7904589 4294955520 975045
-1.9528372 1.9037093 3.7983277 4294955776 979141
-2.0441253 1.9679468 3.9160738 4294957824 983237
-2.0197752 1.920645 3.8116815 4294956544 987333
-2.0721245 1.9465413 3.8525603 4294957312 991429
-1.968359 1.8269199 3.6058207 4294953728 995525
-2.176892 1.9965577 3.9296253 4294958592 999621
-2.1380162 1.937968 3.8031883 4294957056 1003717
-2.3097861 2.0694613 4.0487304 4294960896 1007813
-2.1285055 1.8852476 3.6768479 4294955520 1011909
-2.3527932 2.0603557 4.0057487 4294960640 1016005
-2.1583114 1.8689288 3.6220632 4294955264 1020101
-2.3752818 2.034081 3.9295082 4294959872 1024197
-2.2368648 1.8946123 3.6481886 4294956032 1028293
-2.3944004 2.0061193 3.8502073 4294959104 1032389
-2.3272674 1.9290184 3.6899343 4294957056 1036485
-2.5391231 2.0823498 3.9698586 4294961408 1040581
-2.2728314 1.8444444 3.5043712 4294954496 1044677
-2.4572535 1.9734418 3.7363052 4294958336 1048773
-2.4003012 1.9079318 3.5989351 4294956544 1052869
-2.5826254 2.0320148 3.8186915 4294960128 1056965
-2.3880568 1.8600441 3.4823005 4294955264 1061061
-2.5455768 1.9630071 3.6610143 4294958080 1065157
-2.4967046 1.9063509 3.5416167 4294956544 1069253
-2.711482 2.0501449 3.7938907 4294960640 1073349
-2.6213574 1.9628521 3.6180239 4294958336 1077445
-2.6602356 1.9729021 3.6220529 4294958592 1081541
-2.6643012 1.957188 3.5787287 4294958080 1085637
-2.718693 1.9783916 3.602757 4294958848 1089733
-2.6469898 1.908295 3.4599698 4294956800 1093829
-2.7531786 1.9665561 3.5499129 4294958592 1097925
-2.7327487 1.9341373 3.4758413 4294957568 1102021
-2.8942285 2.0298886 3.6314759 4294960384 1106117
-2.7676954 1.9237344 3.4258933 4294957312 1110213
-2.748883 1.893675 3.3568428 4294956544 1114309
-2.8053956 1.9155784 3.3798785 4294957312 1118405
-2.9027476 1.9647418 3.4497201 4294958592 1122501
-2.9572942 1.9843316 3.466661 4294959360 1126597
-3.0170403 2.0070438 3.4885731 4294960128 1130693
-3.0700114 2.0249012 3.5015554 4294960640 1134789
-3.0989561 2.0267434 3.4865711 4294960640 1138885
-2.9804981 1.932959 3.3078115 4294958080 1142981
-3.0862012 1.9849012 3.3787088 4294959616 1147077
-3.154664 2.0122342 3.4062603 4294960384 1151173
-3.227592 2.0419459 3.4368808 4294961152 1155269
-3.1174355 1.9562854 3.2741442 4294958848 1159365
-3.3517454 2.0864277 3.4726338 4294962688 1163461
-3.2975981 2.0363653 3.3700976 4294961152 1167557
-3.5171931 2.1548021 3.5437305 4294964736 1171653
-3.4515405 2.0979953 3.4284236 4294963200 1175749
-3.6372344 2.1936626 3.562907 4294966016 1179845
-3.469594 2.0763979 3.3517148 4294962688 1183941
-3.4671276 2.0590222 3.3021808 4294962176 1188037
-3.5366201 2.0843198 3.3205914 4294962944 1192133
-3.6176627 2.1159914 3.3477743 4294963968 1196229
-3.60039 2.0901139 3.2832637 4294963200 1200325
-3.9953105 2.3021305 3.5902681 4293984014 1204421
-3.8485618 2.2012069 3.4078915 4294966528 1208517
-3.8891809 2.208143 3.3934309 4294966784 1212613
-3.8587227 2.1749163 3.3174019 4294965760 1216709
-3.6589553 2.0474298 3.0993342 4294962176 1220805
-3.7047544 2.0581968 3.0917854 4294962432 1224901
-3.9554768 2.1818466 3.2517848 4294966272 1228997
-3.8473656 2.1072145 3.1147752 4294963968 1233093
-4.3276424 2.3536301 3.449657 4293197594 1237189
-4.07235 2.199353 3.1950252 4294966784 1241285
-4.2065887 2.2561288 3.2486262 4294246154 1245381
-3.8960028 2.0751905 2.9621956 4294963200 1249477
-4.4987745 2.3798978 3.3662319 4292804384 1253573
-4.3094063 2.2642641 3.1714709 4294115084 1257669
-4.5869961 2.3938868 3.3206441 4292607779 1261765
-4.4798059 2.3223076 3.190474 4293394199 1265861
nan nan nan 4278190080 1269957
nan nan nan 4278190080 1274053
nan nan nan 4278190080 1278149
nan nan nan 4278190080 1282245
nan nan nan 4278190080 1286341
nan nan nan 4278190080 1290437
nan nan nan 4278190080 1294533
nan nan nan 4278190080 1298629
nan nan nan 4278190080 1302725
nan nan nan 4278190080 1306821
nan nan nan 4278190080 198
nan nan nan 4278190080 4294
nan nan nan 4278190080 8390
nan nan nan 4278190080 12486
nan nan nan 4278190080 16582
nan nan nan 4278190080 20678
nan nan nan 4278190080 24774
nan nan nan 4278190080 28870
nan nan nan 4278190080 32966
nan nan nan 4278190080 37062
nan nan nan 4278190080 41158
nan nan nan 4278190080 45254
nan nan nan 4278190080 49350
nan nan nan 4278190080 53446
nan nan nan 4278190080 57542
nan nan nan 4278190080 61638
nan nan nan 4278190080 65734
nan nan nan 4278190080 69830
nan nan nan 4278190080 73926
nan nan nan 4278190080 78022
nan nan nan 4278190080 82118
nan nan nan 4278190080 86214
nan nan nan 4278190080 90310
nan nan nan 4278190080 94406
nan nan nan 4278190080 98502
nan nan nan 4278190080 102598
nan nan nan 4278190080 106694
4.3713021 2.5897903 4.0282698 4291100474 110790
nan nan nan 4278190080 114886
4.1783872 2.5134358 3.9638844 4292017964 118982
4.1930008 2.5417032 4.0349708 4291690289 123078
nan nan nan 4278190080 127174
nan nan nan 4278190080 131270
4.3627877 2.7073426 4.378571 4289920844 135366
4.0434499 2.5291698 4.1162863 4291952429 139462
4.0368099 2.5452976 4.1677961 4291755824 143558
3.7445736 2.3801541 3.9191117 4293590804 147654
3.9947786 2.5599194 4.2383485 4291624754 151750
3.9136834 2.5285938 4.2104268 4292017964 155846
4.2438469 2.7646637 4.6296268 4289396564 159942
3.8309987 2.5165975 4.2370687 4292214569 164038
3.9782295 2.6353674 4.460443 4290903869 168134
3.9557915 2.6428053 4.4963775 4290838334 172230
3.6704745 2.4732382 4.229609 4292738849 176326
3.7732947 2.5645337 4.4081459 4291755824 180422
3.948225 2.7068617 4.6762466 4290182984 184518
3.6831312 2.5473638 4.4226594 4291952429 188614
3.8294652 2.6721156 4.6613946 4290576194 192710
3.4468246 2.4266882 4.2528496 4293328664 196806
3.7389145 2.656152 4.6763101 4290838334 200902
3.5160673 2.5206509 4.4578619 4292345639 204998
3.6072564 2.6098583 4.6363263 4291362614 209094
3.3546679 2.4496877 4.3710561 4293132059 213190
3.3451779 2.4656944 4.418879 4293000989 217286
3.5168045 2.6167693 4.7096667 4291297079 221382
3.4142063 2.5647385 4.6347079 4291886894 225478
3.7476785 2.8424423 5.157114 4288872284 229574
3.3646894 2.5768597 4.6937871 4291821359 233670
3.28004 2.5367796 4.6388974 4292280104 237766
3.127346 2.4427531 4.4842844 4293328664 241862
3.1372313 2.4751022 4.5611124 4293000989 245958
3.1790669 2.533571 4.6865945 4292345639 250054
3.2346587 2.604315 4.8355355 4291624754 254150
2.9447594 2.3954778 4.4642668 4293918479 258246
3.0041783 2.4694033 4.6189179 4293066524 262342
2.9625657 2.4609673 4.6189871 4293197594 266438
3.1045282 2.6064756 4.9085789 4291624754 270534
2.9532847 2.5063012 4.7356615 4292738849 274630
2.7423065 2.352689 4.4600682 4294442759 278726
2.9888706 2.5925562 4.9308205 4291821359 282822
2.7954519 2.4518769 4.6782823 4293394199 286918
2.8932736 2.5663502 4.912262 4292149034 291014
2.6614082 2.3876634 4.5846009 4294115084 295110
2.7399018 2.4865005 4.7892542 4293000989 299206
2.523128 2.316556 4.4756999 4294901504 303302
2.6672423 2.4778523 4.8019519 4293132059 307398
2.6719458 2.5119491 4.8820133 4292804384 311494
2.6265786 2.4992292 4.8707414 4292935454 315590
2.611408 2.5152824 4.9154415 4292804384 319686
2.4952636 2.4332695 4.7679863 4293656339 323782
2.2625427 2.2340832 4.3893251 4294964480 327878
2.2697339 2.2697339 4.4710884 4294965504 331974
2.3753822 2.4060321 4.751925 4293984014 336070
2.1960788 2.2534926 4.4621305 4294964992 340166
2.5939398 2.6970103 5.3539367 4290903869 344262
2.3371215 2.4626045 4.9009066 4293459734 348358
2.3893914 2.5519352 5.0913076 4292476709 352454
2.2103567 2.3932827 4.7865043 4294180619 356550
2.2054698 2.4213901 4.8544316 4293918479 360646
2.2318075 2.4850621 4.9939528 4293197594 364742
2.2008462 2.4858479 5.0072846 4293197594 368838
2.1626801 2.4784 5.0036478 4293328664 372934
2.1789944 2.5340898 5.1268678 4292738849 377030
2.1910923 2.5864775 5.2437377 4292149034 381126
2.1064291 2.5244992 5.1285791 4292869919 385222
1.9810418 2.4110353 4.9079771 4294115084 389318
1.7517753 2.1655805 4.4171062 4294962176 393414
2.0445192 2.5679162 5.2480326 4292411174 397510
1.8349792 2.3422091 4.7960029 4294835969 401606
1.6912071 2.194376 4.5018139 4294962944 405702
1.8041692 2.3802903 4.8923426 4294442759 409798
1.7923511 2.4051208 4.9524713 4294180619 413894
1.7762275 2.4249365 5.0023589 4293984014 417990
1.8427454 2.5602746 5.291019 4292542244 422086
1.7300755 2.4470437 5.0659461 4293787409 426182
1.7004904 2.4493301 5.0794897 4293721874 430278
1.595621 2.3412383 4.8628163 4294901504 434374
1.5658026 2.3412478 4.8701844 4294901504 438470
1.600967 2.440309 5.0837822 4293852944 442566
1.6111311 2.5044315 5.2249665 4293197594 446662
1.6736026 2.6540971 5.545918 4291624754 450758
1.50679 2.4388251 5.1040211 4293918479 454854
1.4608743 2.4142871 5.0603852 4294180619 458950
1.4595071 2.4638991 5.1721158 4293656339 463046
1.3961022 2.4086599 5.0630565 4294246154 467142
1.3922656 2.4560189 5.1693006 4293721874 471238
1.2536317 2.262301 4.7676177 4294964480 475334
1.3245062 2.4464409 5.1620836 4293852944 479430
1.3902842 2.6298146 5.5557528 4291886894 483526
1.3316913 2.5811794 5.4594841 4292411174 487622
1.1625544 2.3103929 4.8924131 4294965760 491718
1.1497523 2.3443 4.9698415 4294966784 495814
1.1532422 2.4141204 5.1235199 4294246154 499910
1.1487417 2.4705815 5.2490015 4293656339 504006
1.0698726 2.3657746 5.0315733 4294770434 508102
1.1027464 2.5091474 5.3419232 4293263129 512198
1.0324467 2.4193156 5.1557646 4294180619 516294
0.92495197 2.2341146 4.7656617 4294963712 520390
0.91912293 2.2905126 4.8905263 4294965248 524486
0.91871017 2.3645492 5.052979 4294835969 528582
0.90545946 2.4094429 5.152895 4294311689 532678
0.85582304 2.3572669 5.0450783 4294901504 536774
0.78726912 2.2472956 4.8131871 4294963968 540870
0.81192875 2.4051476 5.1548572 4294377224 544966
0.73357415 2.2582576 4.8432817 4294964224 549062
0.74911398 2.4002223 5.1510758 4294442759 553158
0.63865966 2.133395 4.5814381 4294960640 557254
0.71550936 2.4963326 5.3645101 4293459734 561350
0.62778711 2.2921529 4.9289656 4294965248 565446
0.58091831 2.2244921 4.7864671 4294963200 569542
0.50225586 2.0219018 4.3531513 4294957568 573638
0.54131234 2.2969201 4.9480767 4294965248 577734
0.49378082 2.2149596 4.7740893 4294962944 581830
0.46224946 2.1991868 4.7425108 4294962432 585926
0.41473332 2.1004236 4.5317063 4294959872 590022
0.41602296 2.2522621 4.8614931 4294963968 594118
0.34626758 2.0134819 4.3479195 4294957312 598214
0.34586293 2.1720192 4.6921034 4294961664 602310
0.30936578 2.1117575 4.5635748 4294960128 606406
0.2699165 2.0179472 4.3622966 4294957568 610502
0.24787183 2.0482042 4.4290423 4294958336 614598
0.22178736 2.0482714 4.4303937 4294958336 618694
0.19626115 2.0542002 4.4442935 4294958592 622790
0.17044443 2.0584443 4.4544196 4294958592 626886
0.14017172 2.0006328 4.3301044 4294957056 630982
0.1235804 2.1557915 4.6666322 4294961408 635078
0.090623707 2.0325603 4.4004078 4294957824 639174
0.068150088 2.1399128 4.6332436 4294960896 643270
0.038983621 2.0401428 4.4174938 4294958080 647366
0.013101405 2.0569208 4.453958 4294958592 651462
-0.013053337 2.0493739 4.4376163 4294958336 655558
-0.040441703 2.1164491 4.5827188 4294960128 659654
-0.069191568 2.1726153 4.7040491 4294961664 663750
-0.089352578 2.0040507 4.338686 4294957056 667846
-0.11391892 1.9872524 4.3017964 4294956544 671942
-0.14146417 2.0190794 4.3700299 4294957568 676038
-0.17016672 2.0550904 4.4471622 4294958592 680134
-0.19946542 2.087738 4.5168533 4294959360 684230
-0.21688499 2.0029967 4.3324647 4294957056 688326
-0.24279873 2.0062842 4.3383946 4294957056 692422
-0.26543099 1.9844127 4.289803 4294956544 696518
-0.28971571 1.9776245 4.2737093 4294956288 700614
