# .PCD v0.7 - Point Cloud Data file format
VERSION 0.7
FIELDS x y z rgba label
SIZE 4 4 4 4 4
TYPE F F F U U
COUNT 1 1 1 1 1
WIDTH 990
HEIGHT 1
VIEWPOINT 0 0 0 1 0 0 0
POINTS 990
DATA ascii
-0.25757536 -0.49307284 3.8560796 4294946816 725078
-0.27952665 -0.50616986 3.9579864 4294948096 729174
-0.32096273 -0.5513975 4.3110447 4294952192 733270
-0.37236434 -0.60849786 4.756803 4294957568 737366
-0.38397494 -0.59828657 4.6762714 4294956544 741462
-0.35284519 -0.52534729 4.1055117 4294949888 745558
-0.32464752 -0.46279541 3.6160786 4294944000 749654
-0.36410713 -0.49786076 3.8893964 4294947328 753750
-0.36504558 -0.4795697 3.7458231 4294945536 757846
-0.40748248 -0.51511937 4.0227337 4294948864 761942
-0.47961634 -0.58425993 4.5617962 4294955264 766038
-0.53048873 -0.62355691 4.8676333 4294958848 770134
-0.47780702 -0.54259443 4.2347264 4294951424 774230
-0.57483238 -0.63137329 4.9265542 4294959616 778326
-0.60423118 -0.64259511 5.012991 4294960640 782422
-0.57575965 -0.59347528 4.6287246 4294956288 786518
-0.61655164 -0.61655164 4.8075695 4294958336 790614
-0.55918688 -0.54297853 4.2328358 4294951680 794710
-0.59583277 -0.56226474 4.3820777 4294953472 798806
-0.53909445 -0.49478534 3.8551707 4294947072 802902
-0.54750949 -0.48910847 3.8099089 4294946560 806998
-0.62857795 -0.54694444 4.2592654 4294951936 811094
-0.79714042 -0.67605579 5.2632189 4294963968 815190
-0.91149491 -0.75395256 5.8679576 4293328664 819286
-0.96460879 -0.77866012 6.0584712 4292411174 823382
-0.87034011 -0.68603277 5.3361378 4294964992 827478
-0.9310649 -0.71702701 5.5754995 4294639364 831574
-1.0751575 -0.80938828 6.2916837 4291297079 835670
-1.0354239 -0.76234502 5.924067 4293000989 839766
-1.0986621 -0.79150933 6.148664 4291952429 843862
-1.1147859 -0.78621745 6.1054606 4292149034 847958
-1.1542282 -0.79725045 6.1890116 4291690289 852054
-0.93489081 -0.63270384 4.9098992 4294960128 856150
-1.0461658 -0.69399124 5.3835583 4294965760 860246
-1.1185805 -0.7276203 5.6423531 4294180619 864342
-1.0341065 -0.65985841 5.1149597 4294962688 868438
-0.95847404 -0.60016596 4.6504755 4294957056 872534
-1.0274043 -0.63152379 4.8915296 4294960128 876630
-1.089018 -0.65733516 5.0894465 4294962432 880726
-1.1081958 -0.65707183 5.0853391 4294962432 884822
-1.0186093 -0.59345067 4.5910621 4294956544 888918
-1.139482 -0.65252393 5.045948 4294962176 893014
-1.0909262 -0.61421895 4.7477064 4294958592 897110
-1.0735537 -0.59444708 4.5928893 4294956800 901206
-1.01235 -0.55144268 4.2587323 4294952960 905302
-1.0255533 -0.54969656 4.2433562 4294952704 909398
-1.0239781 -0.54020888 4.1682034 4294951936 913494
-1.0814385 -0.5616774 4.3318596 4294953984 917590
-1.0528111 -0.53846067 4.1508436 4294951680 921686
-1.1505598 -0.57960528 4.4658899 4294955520 925782
-1.0633285 -0.52772599 4.0641842 4294950656 929878
-1.1014814 -0.53868073 4.1465092 4294951936 933974
-1.1490402 -0.55385387 4.2611804 4294953216 938070
-1.1387982 -0.54113108 4.16118 4294952192 942166
-1.1325908 -0.53065443 4.0785294 4294951168 946262
-1.0515152 -0.48587257 3.7323864 4294947072 950358
-0.94222677 -0.42945027 3.2972288 4294941696 954454
-1.172187 -0.52709079 4.0447111 4294950912 958550
-0.97466499 -0.43246725 3.3168142 4294941952 962646
-0.96040779 -0.42057073 3.2237923 4294940928 966742
-1.0596256 -0.45803174 3.5089936 4294944512 970838
-1.3700585 -0.58467466 4.476675 4294956288 974934
-1.4931245 -0.62917823 4.8146768 4294960640 979030
-1.9756542 -0.82216668 6.2878451 4290379589 983126
-1.7149214 -0.70490628 5.3878899 4294639364 987222
-1.8542992 -0.75295788 5.7517586 4292869919 991318
-1.8670382 -0.74905127 5.718473 4293000989 995414
-1.9754752 -0.7831766 5.9753742 4291755824 999510
-2.0127606 -0.78862548 6.0132322 4291493684 1003606
-2.047781 -0.79307121 6.0433874 4291362614 1007702
-2.3695891 -0.90721416 6.9088068 4287233909 1011798
-2.093154 -0.79232377 6.0300541 4291362614 1015894
-2.1187515 -0.79305226 6.0316935 4291297079 1019990
-2.1151137 -0.78294271 5.9509487 4291624754 1024086
-1.9194914 -0.70276463 5.3380079 4294508294 1028182
-2.3822558 -0.86276287 6.5489678 4288741214 1032278
-2.1658373 -0.77599519 5.8863726 4291821359 1036374
-2.3806653 -0.84393954 6.397428 4289331029 1040470
-2.8104026 -0.98584807 7.4680214 4284153764 1044566
-2.2117105 -0.76779586 5.8121924 4292083499 1048662
-2.7170417 -0.93354768 7.0619793 4286054279 1052758
-2.6602361 -0.90475035 6.8392839 4287037304 1056854
-3.0383453 -1.0229605 7.7273517 4282711994 1060950
-2.6070175 -0.86900586 6.5596366 4288282469 1065046
-2.3846664 -0.7870574 5.9367352 4291297079 1069142
nan nan nan 4278190080 1073238
-2.9584575 -0.95756835 7.2122054 4285005719 1077334
nan nan nan 4278190080 1081430
-3.4635158 -1.0997894 8.2708931 4279762919 1085526
-3.0806797 -0.96904004 7.2820005 4284481439 1089622
-3.0276453 -0.94349873 7.0846186 4285398929 1093718
nan nan nan 4278190080 1097814
-3.0307937 -0.92722911 6.9515562 4285923209 1101910
-2.6128609 -0.79213434 5.9340124 4290903869 1106006
-2.478735 -0.74473202 5.5744562 4292607779 1110102
-2.2411804 -0.66737372 4.9913793 4294965504 1114198
-2.6060369 -0.76918274 5.7481384 4291690289 1118294
-3.1300809 -0.91578788 6.8381066 4286250884 1122390
-2.8158574 -0.81672055 6.0933208 4289855309 1126486
-3.2030017 -0.92103487 6.86585 4285988744 1130582
-4.0711241 -1.1607035 8.6451483 4278251007 1134678
-3.4093521 -0.96382523 7.1726813 4284350369 1138774
-4.1463003 -1.162352 8.6426544 4278250495 1142870
nan nan nan 4278190080 1146966
-4.2624912 -1.1752547 8.7234364 4278248447 1151062
-3.8073568 -1.0411955 7.7216272 4281335759 1155158
nan nan nan 4278190080 1159254
-3.9223866 -1.0554214 7.8132329 4280745944 1163350
-4.3630862 -1.1646484 8.6140671 4278249471 1167446
nan nan nan 4278190080 1171542
-5.0187526 -1.3186526 9.7354145 4278226687 1175638
-4.1043611 -1.0700085 7.8924584 4280090594 1179734
-4.2791643 -1.1069653 8.1574917 4278648824 1183830
-3.9274492 -1.0081958 7.422698 4282318784 1187926
nan nan nan 4278190080 1192022
-4.8799233 -1.2337919 9.0664768 4278238207 1196118
nan nan nan 4278190080 1200214
nan nan nan 4278190080 1204310
nan nan nan 4278190080 1208406
nan nan nan 4278190080 1212502
-4.8016295 -1.1698515 8.5551271 4278246655 1216598
nan nan nan 4278190080 1220694
nan nan nan 4278190080 1224790
nan nan nan 4278190080 1228886
nan nan nan 4278190080 1232982
nan nan nan 4278190080 1237078
nan nan nan 4278190080 1241174
nan nan nan 4278190080 1245270
nan nan nan 4278190080 1249366
nan nan nan 4278190080 1253462
nan nan nan 4278190080 1257558
nan nan nan 4278190080 1261654
-4.3439531 -0.97339416 7.0312347 4282908599 1265750
-3.5421262 -0.78844666 5.6892176 4289920844 1269846
-4.3240581 -0.95614493 6.891819 4283498414 1273942
-3.4636741 -0.76087266 5.4783859 4290903869 1278038
-3.4217808 -0.746773 5.370986 4291428149 1282134
-3.2192607 -0.69802743 5.0148897 4293263129 1286230
-2.1933 -0.47251159 3.3909473 4294948864 1290326
-2.3199391 -0.49660039 3.5598531 4294951168 1294422
-2.4357502 -0.51808023 3.7096815 4294953472 1298518
-2.6063123 -0.550861 3.9399524 4294956800 1302614
-2.624213 -0.55116701 3.9376919 4294956800 1306710
2.8165619 -0.57390761 4.2273102 4294960896 87
2.4918158 -0.51094013 3.767746 4294954496 4183
3.0524855 -0.62987792 4.650074 4294966528 8279
2.6795669 -0.55645961 4.112648 4294958848 12375
3.0139267 -0.62992036 4.6607771 4294966528 16471
2.8604472 -0.60171217 4.4569817 4294963456 20567
3.1354051 -0.66384798 4.9226432 4293852944 24663
2.7754111 -0.59148103 4.3908119 4294962432 28759
3.0611231 -0.65667659 4.8800721 4294180619 32855
2.90661 -0.62767327 4.6695762 4294965760 36951
3.1023517 -0.67442423 5.0227413 4293525269 41047
2.8543434 -0.62468797 4.6573052 4294965504 45143
2.8845716 -0.63558352 4.7435246 4294966528 49239
2.5713413 -0.57043409 4.2617965 4294959872 53335
2.840157 -0.63439935 4.7446179 4294966272 57431
2.6287384 -0.59123874 4.4264312 4294961664 61527
2.8996611 -0.65671766 4.9217057 4294377224 65623
2.6798594 -0.61119604 4.5852489 4294963712 69719
2.8520901 -0.6550737 4.9194145 4294508294 73815
2.7119539 -0.62732029 4.7157555 4294965248 77911
2.7986987 -0.65202659 4.9063983 4294639364 82007
2.4233208 -0.56864929 4.2832546 4294959104 86103
2.842767 -0.67192674 5.0661912 4293918479 90199
2.4326198 -0.5791952 4.3712916 4294960128 94295
2.8366272 -0.68037182 5.1399164 4293656339 98391
2.5723374 -0.6215685 4.7002096 4294964224 102487
2.6342921 -0.64130706 4.854156 4294966272 106583
2.5087903 -0.61536366 4.6622095 4294963456 110679
2.6773515 -0.66170287 5.0180688 4294508294 114775
2.3938127 -0.59616023 4.525259 4294961408 118871
2.5741909 -0.64603245 4.9084196 4294966272 122967
2.3724787 -0.6000433 4.56322 4294961664 127063
2.3907459 -0.60940582 4.6386933 4294962688 131159
2.3217301 -0.59649193 4.5445366 4294961152 135255
2.5441594 -0.65884608 5.0241489 4294704899 139351
2.2650607 -0.59128094 4.5129747 4294960640 143447
2.4479125 -0.64418751 4.9211688 4294965760 147543
2.2536862 -0.59791678 4.5717411 4294961152 151639
2.4560831 -0.65697694 5.0277224 4294901504 155735
2.3245957 -0.62696564 4.8022447 4294963968 159831
2.281518 -0.62049651 4.7567849 4294963200 163927
2.3547125 -0.64580721 4.9550819 4294965760 168023
2.408735 -0.66624588 5.1162238 4294639364 172119
2.1845319 -0.60941875 4.6838069 4294961920 176215
2.2600522 -0.63594538 4.8917494 4294964480 180311
2.0811505 -0.59071958 4.5476542 4294960128 184407
2.2934306 -0.65670919 5.0598168 4294966528 188503
2.0098908 -0.58063507 4.4773393 4294959104 192599
2.1937127 -0.63942295 4.9346333 4294964736 196695
2.1549563 -0.6338107 4.895247 4294964224 200791
2.1776097 -0.64632249 4.995841 4294965248 204887
2.0271964 -0.60722476 4.6973243 4294961408 208983
2.0553224 -0.62137651 4.8105474 4294962688 213079
1.9186232 -0.58549535 4.536263 4294959104 217175
2.0730791 -0.63862622 4.9517002 4294964480 221271
1.9454983 -0.60505927 4.694983 4294961152 225367
1.9916097 -0.62538469 4.8563547 4294962944 229463
1.9222962 -0.60950851 4.7365789 4294961408 233559
1.9389703 -0.62085253 4.8283057 4294962432 237655
1.8941295 -0.61252946 4.7670364 4294961664 241751
1.8511906 -0.60466021 4.7092137 4294960896 245847
1.7871084 -0.58965504 4.5956182 4294959360 249943
1.914925 -0.63830835 4.978354 4294963968 254039
1.9029615 -0.64089376 5.0020089 4294964224 258135
1.8055143 -0.61444205 4.7989035 4294961664 262231
1.7185856 -0.59104794 4.6193528 4294959360 266327
1.8461934 -0.641725 5.0188398 4294964224 270423
1.6871816 -0.59279352 4.639267 4294959360 274519
1.8158166 -0.64496219 5.0509076 4294964480 278615
1.6615096 -0.59667474 4.675828 4294959616 282711
1.5573615 -0.56552231 4.4345875 4294956544 286807
1.6249224 -0.5967229 4.6822658 4294959616 290903
1.5882549 -0.58992326 4.6318526 4294958848 294999
1.4118061 -0.53044736 4.1674995 4294952960 299095
1.5841238 -0.60215235 4.733788 4294959872 303191
1.5023642 -0.57783234 4.545404 4294957568 307287
1.5822153 -0.61583233 4.8472509 4294961152 311383
1.3765864 -0.54229158 4.270987 4294953984 315479
1.5708311 -0.626405 4.936358 4294962176 319575
1.4304705 -0.57751912 4.5537996 4294957312 323671
1.4387978 -0.58818781 4.6405959 4294958336 327767
1.2745298 -0.52767158 4.165535 4294952448 331863
1.3267124 -0.55636322 4.3945045 4294955264 335959
1.228704 -0.52199841 4.1253729 4294951936 340055
1.2737455 -0.54830104 4.3356247 4294954496 344151
1.1630689 -0.50737906 4.0142169 4294950400 348247
1.3138673 -0.58096176 4.5988431 4294957568 352343
1.2396163 -0.55569005 4.401113 4294955008 356439
1.2682923 -0.57649648 4.5682888 4294957056 360535
1.1432602 -0.52703488 4.1784787 4294952192 364631
1.1989224 -0.56064713 4.4472308 4294955520 368727
1.099197 -0.52151686 4.1388865 4294951680 372823
1.1489872 -0.55321604 4.3926368 4294954752 376919
1.0562522 -0.51621348 4.1008062 4294951168 381015
1.0115807 -0.50192934 3.9892464 4294949632 385111
1.0206405 -0.51427621 4.0892944 4294950912 389207
1.000069 -0.5118463 4.0718608 4294950656 393303
1.018803 -0.52977753 4.2164292 4294952448 397399
1.0428836 -0.55111742 4.3882341 4294954240 401495
1.0304402 -0.55354226 4.409493 4294954496 405591
0.98406744 -0.53751582 4.2836752 4294952960 409687
0.92990071 -0.51661152 4.1188483 4294950912 413783
0.97156477 -0.54914528 4.3800573 4294953984 417879
0.86124092 -0.49540406 3.9530513 4294948864 421975
0.93936211 -0.5500769 4.3910809 4294954240 426071
0.87792492 -0.52353323 4.1808586 4294951680 430167
0.97673023 -0.59334081 4.7401814 4294958336 434263
0.89905965 -0.55656075 4.4480462 4294954752 438359
0.89963043 -0.56772792 4.5390081 4294955776 442455
0.82456404 -0.53066003 4.2441998 4294952192 446551
0.82077444 -0.53889233 4.3116131 4294952960 450647
0.77573371 -0.51982158 4.1604948 4294951168 454743
0.7860229 -0.53780514 4.3059301 4294952704 458839
0.74390286 -0.51993209 4.1642432 4294951168 462935
0.7448895 -0.5320639 4.2628217 4294952192 467031
0.73243004 -0.53492081 4.2871122 4294952448 471127
0.71914166 -0.53728974 4.3074536 4294952704 475223
0.6494742 -0.49665675 3.9829476 4294948864 479319
0.66278064 -0.51904505 4.1637506 4294950912 483415
0.62293649 -0.49988729 4.0112543 4294949120 487511
0.63001782 -0.51836908 4.1607656 4294950912 491607
0.55745381 -0.47057787 3.7782147 4294946304 495703
0.56937414 -0.49345759 3.9630127 4294948352 499799
0.54691827 -0.48698202 3.9120493 4294947840 503895
0.5457086 -0.49959236 4.0143909 4294949120 507991
0.5328083 -0.50192088 4.0341282 4294949120 512087
0.51320088 -0.49788147 4.002636 4294948864 516183
0.47031897 -0.47031897 3.7819571 4294946304 520279
0.47186315 -0.48684293 3.9157381 4294947840 524375
0.43352786 -0.4619559 3.7163894 4294945280 528471
0.42652321 -0.46989846 3.7811148 4294946048 532567
0.40441087 -0.46117032 3.7116597 4294945280 536663
0.38200104 -0.45145577 3.6341968 4294944256 540759
0.36998051 -0.45374969 3.6533854 4294944512 544855
0.37013656 -0.47174266 3.79897 4294946304 548951
0.3456983 -0.45857936 3.6936216 4294945024 553047
0.35329309 -0.48859683 3.9360871 4294947840 557143
0.32438153 -0.4685511 3.7752299 4294946048 561239
0.30725348 -0.46445292 3.7427976 4294945536 565335
0.27922392 -0.44267207 3.567816 4294943488 569431
nan nan nan 4278190080 573527
nan nan nan 4278190080 577623
nan nan nan 4278190080 581719
0.23396522 -0.46084058 3.7162333 4294945280 585815
nan nan nan 4278190080 589911
0.19249675 -0.4314582 3.4800766 4294942464 594007
0.18750726 -0.45140636 3.6413391 4294944256 598103
0.17212212 -0.44751751 3.6103001 4294944000 602199
0.16436647 -0.46451393 3.7477474 4294945536 606295
0.14547966 -0.4502942 3.6333134 4294944256 610391
0.13644801 -0.46679583 3.7667344 4294945792 614487
0.11752819 -0.44937247 3.6263738 4294944000 618583
0.10626035 -0.46046153 3.7160733 4294945024 622679
0.086983263 -0.43491632 3.5100892 4294942720 626775
0.078971907 -0.46665218 3.7663796 4294945792 630871
nan nan nan 4278190080 634967
nan nan nan 4278190080 639063
0.033194646 -0.43153042 3.4832139 4294942464 643159
0.021040596 -0.4558796 3.6798091 4294944768 647255
0.0066920314 -0.43498203 3.5111523 4294942720 651351
-0.0068168687 -0.44309646 3.5766513 4294943488 655447
-0.019213447 -0.41629136 3.3602571 4294940928 659543
nan nan nan 4278190080 663639
nan nan nan 4278190080 667735
nan nan nan 4278190080 671831
nan nan nan 4278190080 675927
-0.10247209 -0.51236045 4.135119 4294949888 680023
-0.095537871 -0.41399744 3.3410931 4294940672 684119
-0.12138578 -0.46412212 3.7454014 4294945536 688215
-0.12222121 -0.41812518 3.3739944 4294941184 692311
-0.16461754 -0.50953048 4.1112766 4294949632 696407
-0.15540893 -0.43919915 3.543505 4294943232 700503
-0.18440981 -0.47946551 3.868037 4294946816 704599
-0.1680114 -0.40447187 3.2627349 4294939904 708695
-0.21529818 -0.48256487 3.8922951 4294947328 712791
-0.21008544 -0.44050172 3.5526354 4294943232 716887
-0.24032569 -0.47336876 3.817261 4294946304 720983
-0.24639533 -0.45759133 3.6895766 4294944768 725079
-0.29357255 -0.51573551 4.1578641 4294950400 729175
-0.31087223 -0.51812035 4.1765189 4294950656 733271
-0.36501983 -0.57868999 4.6640835 4294956288 737367
-0.38179329 -0.57712942 4.6508021 4294956288 741463
-0.37280938 -0.5385024 4.3388448 4294952448 745559
-0.30999652 -0.42871857 3.4537137 4294942208 749655
-0.38213626 -0.50691545 4.0829439 4294949632 753751
-0.37321621 -0.47566772 3.8305788 4294946560 757847
-0.45157623 -0.55381989 4.459105 4294953984 761943
-0.55277067 -0.65327442 5.2588272 4294963456 766039
-0.57898909 -0.66025072 5.3139286 4294964224 770135
-0.54466814 -0.60005814 4.8284659 4294958336 774231
-0.52667308 -0.56120902 4.5148711 4294954752 778327
-0.50962168 -0.52580017 4.2290759 4294951424 782423
-0.56095332 -0.56095332 4.5107718 4294954752 786519
-0.57479513 -0.55763704 4.4830313 4294954496 790615
-0.57777214 -0.54427809 4.3745694 4294953216 794711
-0.59597474 -0.54561067 4.3841634 4294953472 798807
-0.58264661 -0.51879489 4.1676102 4294950912 802903
-0.48666385 -0.42177534 3.3873246 4294941696 806999
-0.61742932 -0.52120656 4.1847067 4294951168 811095
-0.77801251 -0.6401369 5.1381531 4294962432 815191
-0.87728947 -0.70399773 5.6491017 4294311689 819287
-0.83534074 -0.65418249 5.2478156 4294963712 823383
-0.82805562 -0.633219 5.0781112 4294961920 827479
-0.83583874 -0.62447721 5.0064359 4294960896 831575
-0.90926957 -0.66407329 5.3222022 4294964736 835671
-1.0821398 -0.77295709 6.1928239 4291755824 839767
-1.0580806 -0.73951864 5.9229574 4293000989 843863
-1.0622895 -0.72682959 5.8193521 4293459734 847959
-1.0533533 -0.70585525 5.6494527 4294180619 852055
-0.98633999 -0.64759696 5.1813459 4294963200 856151
-1.0967686 -0.70584118 5.6452923 4294180619 860247
-1.121547 -0.70777237 5.658669 4294115084 864343
-1.0418237 -0.64493847 5.1543632 4294963200 868439
-0.99235475 -0.60283232 4.816009 4294959104 872535
-0.973387 -0.58046013 4.6354685 4294957056 876631
-1.0381986 -0.60795414 4.8530955 4294959616 880727
-1.0750721 -0.61840427 4.9345255 4294960640 884823
-1.0532449 -0.59531236 4.748292 4294958592 888919
-1.0444442 -0.58024675 4.6262007 4294957056 893015
-1.0574058 -0.57757461 4.6029191 4294956800 897111
-1.0823914 -0.58144987 4.631804 4294957312 901207
-0.99790013 -0.5273456 4.1989532 4294952192 905303
-1.0355887 -0.53850615 4.2858992 4294953216 909399
-1.0194832 -0.52178276 4.1509075 4294951680 913495
-1.080254 -0.54431403 4.3281417 4294953728 917591
-1.0535469 -0.52275229 4.1547437 4294951680 921687
-1.1300364 -0.55227339 4.3872666 4294954496 925783
-1.0927185 -0.5261237 4.1775184 4294952192 929879
-1.1842995 -0.56189388 4.4593287 4294955520 933975
-1.186003 -0.55460566 4.3993077 4294955008 938071
-1.1065837 -0.51012725 4.0444307 4294950656 942167
-1.1047102 -0.502141 3.979079 4294949888 946263
-1.0592986 -0.47485802 3.7609165 4294947328 950359
-0.98335528 -0.43481696 3.4419737 4294943488 954455
-1.1680417 -0.50954837 4.0313797 4294950656 958551
-0.91837275 -0.39532602 3.125993 4294939648 962647
-1.0382775 -0.4410983 3.486016 4294944256 966743
-1.1402152 -0.47815475 3.7767649 4294947840 970839
-1.6108801 -0.66692489 5.2648258 4294966016 974935
-1.6310687 -0.66678911 5.2607331 4294966016 979031
-1.7779725 -0.71781498 5.6600471 4293394199 983127
-1.8249096 -0.72772467 5.7348032 4293000989 987223
-1.5684557 -0.61787653 4.8662796 4294961408 991319
-2.1016107 -0.81799221 6.4384627 4289593169 995415
-2.1236238 -0.81677842 6.4250255 4289658704 999511
-2.0831795 -0.79185188 6.2251005 4290510659 1003607
-2.2451284 -0.84354538 6.6273775 4288610144 1007703
-2.3070273 -0.85689586 6.7280197 4288085864 1011799
-2.3612154 -0.86711293 6.8039174 4287692654 1015895
-2.2863672 -0.83024502 6.5104313 4289003354 1019991
-2.1222644 -0.76213914 5.9724865 4291559219 1024087
-2.5433524 -0.90337652 7.0746346 4286250884 1028183
-3.0085583 -1.057061 8.2726755 4280483804 1032279
-2.8306472 -0.98391479 7.6950579 4283170739 1036375
-2.7212093 -0.93586564 7.3142858 4285005719 1040471
-2.4145782 -0.82171512 6.4177437 4289199959 1044567
-1.7744498 -0.59761262 4.6642108 4294959872 1048663
-3.2003343 -1.0667782 8.320116 4279959524 1052759
-2.9847517 -0.98481655 7.6754041 4283039669 1056855
-2.4985261 -0.81610149 6.3559604 4289331029 1060951
-2.5731709 -0.83211994 6.4760089 4288741214 1065047
-2.6042888 -0.83388555 6.4850411 4288610144 1069143
-2.6579068 -0.84275091 6.5491395 4288282469 1073239
-2.7926242 -0.87691098 6.8095536 4286971769 1077335
-2.5787926 -0.80201685 6.2232833 4289789774 1081431
-3.3930085 -1.0452396 8.1044474 4280549339 1085527
-3.1866167 -0.97244167 7.5342202 4283301809 1089623
-2.891809 -0.87426782 6.7683706 4286971769 1093719
-3.0400078 -0.91060144 7.0441632 4285595534 1097815
-3.1576927 -0.93721473 7.2443337 4284546974 1101911
-2.8983481 -0.85245538 6.5839529 4287692654 1106007
-2.5519357 -0.74383771 5.7404361 4291821359 1110103
nan nan nan 4278190080 1114199
nan nan nan 4278190080 1118295
-2.476222 -0.70285779 5.4109502 4293328664 1122391
nan nan nan 4278190080 1126487
nan nan nan 4278190080 1130583
-3.8284252 -1.0589261 8.1316872 4279697384 1134679
-2.9148304 -0.79942608 6.1337528 4289527634 1138775
nan nan nan 4278190080 1142871
nan nan nan 4278190080 1146967
-4.4474545 -1.1896484 9.1041574 4278241023 1151063
-4.6882997 -1.2438346 9.5105047 4278232831 1155159
-4.1889648 -1.1023592 8.421299 4278253823 1159255
-4.3536925 -1.1365061 8.674428 4278248703 1163351
-5.0452433 -1.306537 9.963233 4278222847 1167447
-4.7374501 -1.2171314 9.2730474 4278236159 1171543
-4.5776367 -1.1668487 8.8818521 4278243583 1175639
nan nan nan 4278190080 1179735
nan nan nan 4278190080 1183831
-4.6492167 -1.157851 8.7888718 4278244351 1187927
nan nan nan 4278190080 1192023
nan nan nan 4278190080 1196119
-5.0771718 -1.2360156 9.3556004 4278232063 1200215
-4.0764441 -0.98501438 7.4485335 4281925574 1204311
-5.5580616 -1.3331144 10.071105 4278217215 1208407
nan nan nan 4278190080 1212503
nan nan nan 4278190080 1216599
-4.934691 -1.1579601 8.7221384 4278243071 1220695
nan nan nan 4278190080 1224791
nan nan nan 4278190080 1228887
nan nan nan 4278190080 1232983
nan nan nan 4278190080 1237079
nan nan nan 4278190080 1241175
nan nan nan 4278190080 1245271
nan nan nan 4278190080 1249367
nan nan nan 4278190080 1253463
nan nan nan 4278190080 1257559
nan nan nan 4278190080 1261655
-3.1650043 -0.68804443 5.1241765 4293000989 1265751
-3.4106464 -0.73651832 5.4793291 4291034939 1269847
-3.4359763 -0.73709059 5.4776664 4290969404 1273943
-3.5165117 -0.74942052 5.5632625 4290510659 1278039
-2.9165566 -0.61751199 4.5790472 4294964992 1282135
-3.0278881 -0.6369344 4.7178779 4294835969 1286231
-2.7776039 -0.58052814 4.2953238 4294961408 1290327
-2.7186213 -0.56456995 4.1725893 4294959872 1294423
-2.3632498 -0.48765472 3.600111 4294951936 1298519
-2.8470063 -0.58377105 4.3048115 4294961920 1302615
-2.7295086 -0.55616945 4.0966539 4294959104 1306711
2.8183012 -0.5565924 4.2308841 4294960896 88
3.0844936 -0.61300659 4.6649756 4294901504 4184
3.0040894 -0.60081786 4.5773931 4294965504 8280
2.8950255 -0.58270484 4.4443421 4294963456 12376
3.0275602 -0.61329997 4.6829309 4294966784 16472
2.9995909 -0.61156708 4.6748462 4294966528 20568
3.0400121 -0.62384611 4.7739687 4294639364 24664
2.9682631 -0.61311662 4.6969781 4294966528 28760
3.1431391 -0.65352398 5.0119743 4293459734 32856
2.8421519 -0.59486902 4.5670609 4294964480 36952
2.9526517 -0.62213063 4.7814765 4294835969 41048
2.7978721 -0.59348804 4.566205 4294964224 45144
2.9698997 -0.63424975 4.8849697 4294377224 49240
2.8142312 -0.60510772 4.6654339 4294965248 53336
2.8408031 -0.61501926 4.7467823 4294966272 57432
2.6922531 -0.58689255 4.53442 4294963200 61528
2.7358894 -0.60056108 4.6447835 4294964480 65624
2.7466526 -0.60715479 4.7006116 4294965248 69720
2.7700112 -0.61664563 4.7789278 4294966016 73816
2.6560991 -0.59549552 4.6196933 4294963968 77912
2.6733048 -0.60364944 4.6876378 4294964736 82008
2.6440444 -0.60135305 4.6744647 4294964224 86104
2.6119761 -0.59837997 4.6559539 4294963968 90200
2.7327275 -0.63062948 4.9117045 4294770434 94296
2.482976 -0.57722318 4.5001364 4294961664 98392
2.6063099 -0.61039972 4.7633872 4294964992 102488
2.6832316 -0.63312209 4.9454694 4294770434 106584
2.6204686 -0.62297934 4.8708725 4294966272 110680
2.5039837 -0.59981364 4.6942096 4294963712 114776
2.5151477 -0.6071046 4.7557178 4294964480 118872
2.3957431 -0.58274829 4.5692105 4294961920 122968
2.450017 -0.60058784 4.7134304 4294963712 127064
2.6170387 -0.64656252 5.0789332 4294377224 131160
2.3927722 -0.59582865 4.6846628 4294962944 135256
2.5662816 -0.64412642 5.0690064 4294508294 139352
2.496417 -0.63162357 4.9750738 4294966528 143448
2.5006776 -0.63782465 5.028409 4294835969 147544
2.4061821 -0.61873251 4.8822064 4294965248 151640
2.4740829 -0.64142889 5.0657434 4294704899 155736
2.304353 -0.60238278 4.7615194 4294963456 159832
2.4134939 -0.63619292 5.0331135 4294966784 163928
2.2648621 -0.60205197 4.7671037 4294963200 168024
2.4685194 -0.66177332 5.2444277 4293984014 172120
2.2270195 -0.60215551 4.7760034 4294963200 176216
2.2955637 -0.62606287 4.9697618 4294965504 180312
2.1717367 -0.59746468 4.746695 4294962688 184408
2.3300443 -0.64666426 5.1417742 4294704899 188504
2.0038414 -0.56107563 4.4648952 4294958848 192600
2.130466 -0.60188049 4.7934594 4294962944 196696
2.1498456 -0.61285192 4.884768 4294963968 200792
2.0979404 -0.60351712 4.8141675 4294962944 204888
2.0260847 -0.58821815 4.695837 4294961408 208984
2.1471124 -0.62915385 5.0265374 4294965504 213080
2.0134659 -0.59553218 4.7616081 4294961920 217176
1.9569521 -0.5843032 4.6753964 4294960896 221272
1.9048781 -0.57419771 4.5980253 4294959872 225368
1.9099127 -0.58127779 4.6582155 4294960384 229464
1.9242275 -0.59134793 4.7424426 4294961408 233560
1.8794566 -0.58327961 4.6811872 4294960640 237656
1.9092295 -0.5984152 4.8061604 4294962176 241752
1.8770497 -0.59424186 4.7760987 4294961664 245848
1.7911148 -0.57279307 4.6069937 4294959360 249944
1.8198097 -0.58793855 4.7321706 4294960896 254040
1.7677937 -0.57705182 4.64779 4294959616 258136
1.8283097 -0.603055 4.8606167 4294962432 262232
1.6580349 -0.55267829 4.457624 4294957312 266328
1.8054733 -0.60826105 4.9092813 4294962688 270424
1.6169733 -0.55064493 4.4472332 4294956800 274520
1.7409753 -0.59935212 4.8438525 4294961664 278616
1.6645534 -0.57937491 4.6854692 4294959616 282712
1.6090486 -0.56631321 4.5828323 4294958336 286808
1.5705997 -0.55902702 4.5267739 4294957568 290904
1.5383688 -0.5538128 4.4874144 4294957056 295000
1.6185983 -0.58943176 4.7790279 4294960640 299096
1.5977201 -0.58863372 4.7755313 4294960384 303192
1.6036801 -0.59782159 4.853054 4294961408 307288
1.4784259 -0.55772954 4.5303421 4294957312 311384
1.3872601 -0.52968115 4.3050976 4294954496 315480
1.3543901 -0.52347594 4.2571826 4294953728 319576
1.3956836 -0.54613709 4.4440861 4294956032 323672
1.4261893 -0.56509387 4.6009946 4294957824 327768
1.2794704 -0.51341808 4.1826515 4294952704 331864
1.3029121 -0.5295707 4.3166623 4294954240 335960
1.2981441 -0.53452992 4.35953 4294954752 340056
1.3249798 -0.55280614 4.5110521 4294956544 344152
1.2401536 -0.52436024 4.2812624 4294953728 348248
1.2061572 -0.5169245 4.2228022 4294952960 352344
1.1887525 -0.51649249 4.2215114 4294952960 356440
1.1846503 -0.52190888 4.2679987 4294953472 360536
1.1875424 -0.53060406 4.3413391 4294954240 364632
1.1413064 -0.51728272 4.2344885 4294952960 368728
1.0897624 -0.50113159 4.1043224 4294951168 372824
1.1658345 -0.54405612 4.458075 4294955520 376920
1.097605 -0.51991814 4.2623434 4294952960 381016
1.0772171 -0.51805097 4.249073 4294952960 385112
1.0468432 -0.51124901 4.1952424 4294952192 389208
1.0235057 -0.50772333 4.1682534 4294951680 393304
0.99059027 -0.49925748 4.1006069 4294950912 397400
1.0086879 -0.51664501 4.2453341 4294952704 401496
1.0117009 -0.52675331 4.3302975 4294953728 405592
0.98918194 -0.52368456 4.3069448 4294953216 409688
0.92268139 -0.49682847 4.0878139 4294950656 413784
0.9064272 -0.49656448 4.0873547 4294950656 417880
0.92737854 -0.51703405 4.2576036 4294952448 421976
0.88557976 -0.50262636 4.1406293 4294951168 426072
0.88628733 -0.51225781 4.2216611 4294951936 430168
0.88038373 -0.5183568 4.2735777 4294952704 434264
0.86897486 -0.52138489 4.3002052 4294952960 438360
0.84733868 -0.51827508 4.2761559 4294952704 442456
0.78499091 -0.48964778 4.0414538 4294949632 446552
0.84138584 -0.53542739 4.4209061 4294954240 450648
0.78974152 -0.51292491 4.2366042 4294951936 454744
0.7947607 -0.52705187 4.3548059 4294953472 458840
0.72696674 -0.49246135 4.0703683 4294949888 462936
0.7583887 -0.5250383 4.3410859 4294953216 467032
0.70952851 -0.50225049 4.154016 4294950912 471128
0.71832466 -0.5201661 4.303565 4294952704 475224
0.66592044 -0.49356455 4.0847483 4294949888 479320
0.66980052 -0.50840282 4.2088189 4294951424 483416
0.64989126 -0.50547099 4.1857972 4294951168 487512
0.63135326 -0.50348425 4.1705399 4294950912 491608
0.57409948 -0.46971774 3.8919427 4294947584 495704
0.568376 -0.47743586 3.9569786 4294948352 499800
0.53989768 -0.4659391 3.8627186 4294947328 503896
0.53994977 -0.47911033 3.9729526 4294948608 507992
0.4752194 -0.43389598 3.5989215 4294944000 512088
0.497664 -0.46795273 3.8823595 4294947328 516184
0.47116205 -0.45666474 3.7896147 4294946304 520280
0.46080935 -0.46080935 3.8248804 4294946560 524376
0.42074436 -0.43453926 3.6076465 4294944000 528472
0.44108704 -0.47099125 3.9111259 4294947584 532568
0.41031143 -0.45350209 3.7666745 4294945792 536664
nan nan nan 4278190080 540760
nan nan nan 4278190080 544856
0.35944152 -0.44401598 3.6900418 4294945024 548952
0.34244698 -0.44028896 3.6597376 4294944512 553048
0.34201533 -0.45844609 3.811321 4294946304 557144
0.32309765 -0.4523367 3.7611439 4294945792 561240
0.31560814 -0.46240261 3.8454611 4294946816 565336
nan nan nan 4278190080 569432
nan nan nan 4278190080 573528
nan nan nan 4278190080 577624
nan nan nan 4278190080 581720
nan nan nan 4278190080 585816
nan nan nan 4278190080 589912
nan nan nan 4278190080 594008
0.19143008 -0.44667017 3.7183788 4294945280 598104
0.17348486 -0.43718186 3.6397355 4294944256 602200
0.16614391 -0.45508984 3.7891543 4294946048 606296
0.15139109 -0.45417327 3.7818186 4294945792 610392
0.13633618 -0.45206207 3.7645037 4294945536 614488
0.12089954 -0.44803947 3.7312524 4294945280 618584
0.10957614 -0.46021977 3.8329146 4294946560 622680
0.090691872 -0.43950677 3.6605947 4294944512 626776
nan nan nan 4278190080 630872
nan nan nan 4278190080 634968
nan nan nan 4278190080 639064
nan nan nan 4278190080 643160
0.021431375 -0.45005888 3.7490218 4294945536 647256
0.0075335768 -0.47461534 3.9536068 4294947840 651352
-0.0077870926 -0.49058682 4.0866513 4294949376 655448
-0.021170294 -0.44457617 3.7033503 4294945024 659544
-0.044534534 -0.56113517 4.6742282 4294956288 663640
nan nan nan 4278190080 667736
nan nan nan 4278190080 671832
nan nan nan 4278190080 675928
-0.10643016 -0.51577693 4.2958388 4294951936 680024
-0.11303763 -0.47475806 3.9539959 4294947840 684120
-0.12925962 -0.47902092 3.9892645 4294948352 688216
-0.13137719 -0.43561912 3.6275766 4294944000 692312
-0.16004881 -0.48014647 3.9980924 4294948352 696408
nan nan nan 4278190080 700504
-0.18416813 -0.4641037 3.8638718 4294946816 704600
nan nan nan 4278190080 708696
-0.2138133 -0.46449098 3.8663332 4294946816 712792
-0.23908183 -0.48587596 4.0439048 4294948864 716888
-0.24013126 -0.45843241 3.8150592 4294946304 720984
-0.25954813 -0.46718663 3.8874345 4294947072 725080
-0.28832728 -0.49093562 4.0845103 4294949376 729176
-0.33054417 -0.53395593 4.4418268 4294953728 733272
-0.36835629 -0.56601089 4.7078109 4294956800 737368
-0.37132281 -0.54403108 4.5243049 4294954752 741464
-0.36541817 -0.51158547 4.2537923 4294951424 745560
-0.35408437 -0.47462374 3.9458151 4294947840 749656
-0.35058725 -0.45075506 3.746733 4294945536 753752
-0.40526211 -0.50061792 4.1604381 4294950400 757848
-0.45908174 -0.54570091 4.5342646 4294955008 761944
-0.4985199 -0.57103187 4.7438188 4294957312 766040
-0.58579051 -0.64745265 5.3775792 4294964736 770136
-0.56771594 -0.60620517 5.0339465 4294960896 774232
-0.54059553 -0.55831999 4.635303 4294956288 778328
-0.55344629 -0.55344629 4.5937996 4294955776 782424
-0.57578301 -0.55806667 4.6310945 4294956288 786520
-0.54286027 -0.51045072 4.2349429 4294951424 790616
-0.51915377 -0.47400999 3.9316447 4294948096 794712
-0.59049481 -0.52396017 4.3448634 4294952960 798808
-0.53220057 -0.45929638 3.8076494 4294946560 802904
-0.64912891 -0.5452683 4.5191722 4294955008 807000
-0.6517666 -0.53326362 4.4184651 4294953728 811096
-0.70120639 -0.55918986 4.6319695 4294956288 815192
-0.80528015 -0.626329 5.1866202 4294962944 819288
-0.76749277 -0.58255476 4.8226867 4294958592 823384
-0.81897986 -0.60700858 5.023613 4294961152 827480
-0.88278407 -0.63925743 5.2888603 4294964224 831576
-0.90179002 -0.63834572 5.279633 4294964224 835672
-1.08102 -0.74839848 6.1878567 4291821359 839768
-0.92564309 -0.62704855 5.1827793 4294963200 843864
-0.99050933 -0.65686411 5.4273896 4294966016 847960
-1.0612378 -0.68925756 5.693059 4293984014 852056
-0.98099798 -0.62427145 5.1544724 4294962944 856152
-1.0534706 -0.65711534 5.4236975 4294966272 860248
-1.0631301 -0.65026408 5.3651628 4294965504 864344
-1.1156237 -0.66937417 5.5207705 4294704899 868440
-1.096773 -0.64576352 5.3239794 4294965248 872536
-1.0001336 -0.5780589 4.7639465 4294958592 876632
-1.0720832 -0.60847968 5.0126476 4294961664 880728
-1.1222379 -0.62567246 5.152205 4294963200 884824
-1.136044 -0.62235451 5.1227665 4294962944 888920
-1.0591159 -0.57029313 4.6922674 4294957824 893016
-1.0820984 -0.57287562 4.7115073 4294958080 897112
-1.08219 -0.56345433 4.6320066 4294957312 901208
-1.0389898 -0.53216553 4.3728681 4294954240 905304
-1.0502869 -0.52934456 4.3477244 4294953984 909400
-1.0462397 -0.51900083 4.2608385 4294952960 913496
-1.1098365 -0.54201317 4.4476895 4294955264 917592
-1.1313952 -0.54410613 4.4627781 4294955520 921688
-1.1233611 -0.53211838 4.3623624 4294954240 925784
-1.1728697 -0.5473392 4.4849772 4294955776 929880
-1.169787 -0.53793126 4.4057155 4294955008 933976
-1.1593977 -0.52548242 4.3016114 4294953728 938072
-1.1665797 -0.52123773 4.2647047 4294953216 942168
-1.209087 -0.53267473 4.3560386 4294954496 946264
-1.1607566 -0.50432873 4.1220918 4294951680 950360
-1.0632294 -0.45566976 3.7224069 4294946816 954456
-1.2009152 -0.50776953 4.1458039 4294952192 958552
-0.9723236 -0.40567145 3.3103917 4294941952 962648
-1.0237765 -0.42155504 3.438127 4294943488 966744
-0.90228093 -0.36673355 2.9893363 4294938112 970840
-1.1150335 -0.44743383 3.6450992 4294946048 974936
-1.4514784 -0.57511407 4.6825795 4294958848 979032
-1.406992 -0.55056208 4.4800935 4294956544 983128
-1.9578135 -0.75670087 6.1538911 4291034939 987224
-1.822264 -0.69577348 5.6550488 4293328664 991320
-1.9338477 -0.72953534 5.9258914 4292017964 995416
-2.0499432 -0.76418 6.2035351 4290707264 999512
-2.1410081 -0.78879243 6.3994007 4289724239 1003608
-2.2105975 -0.80501527 6.5269485 4289068889 1007704
-2.4331739 -0.87594259 7.0975561 4286316419 1011800
-2.5636199 -0.91247487 7.3888512 4284940184 1015896
-2.2046268 -0.77593011 6.2791362 4290117449 1019992
-2.3774583 -0.82751316 6.6921906 4288151399 1024088
-2.5728269 -0.88572723 7.1582828 4285857674 1028184
-3.0506623 -1.0388741 8.3903723 4279959524 1032280
-2.6152964 -0.88108915 7.111279 4285988744 1036376
-2.1165223 -0.70550746 5.6902666 4292738849 1040472
-2.3060203 -0.76062447 6.1306243 4290641729 1044568
-2.108922 -0.68840462 5.5446668 4293394199 1048664
nan nan nan 4278190080 1052760
-2.987591 -0.95542252 7.6844954 4283039669 1056856
-2.5223536 -0.79853404 6.4180555 4289068889 1060952
-2.4578671 -0.77037627 6.1872621 4290117449 1065048
-2.2932479 -0.71169764 5.7118225 4292411174 1069144
-2.2641046 -0.69579798 5.580102 4293000989 1073240
-2.7103577 -0.82489145 6.6104751 4287954794 1077336
nan nan nan 4278190080 1081432
-3.0363059 -0.90657473 7.2541041 4284743579 1085528
-2.5783508 -0.76261079 6.0974936 4290314054 1089624
nan nan nan 4278190080 1093720
-3.3067529 -0.96002501 7.6640291 4282580924 1097816
nan nan nan 4278190080 1101912
-2.9798493 -0.84945935 6.7706594 4286840699 1106008
-1.8819116 -0.53166109 4.2342224 4294955776 1110104
-2.5546334 -0.71529734 5.6921525 4292017964 1114200
-3.29618 -0.91479892 7.2737737 4284153764 1118296
-3.094332 -0.85127914 6.7631817 4286644094 1122392
-2.7888391 -0.76059252 6.0376744 4290182984 1126488
-3.4337416 -0.92843658 7.3639059 4283563949 1130584
-4.1991062 -1.1257179 8.9211006 4278245887 1134680
-2.7577424 -0.73307079 5.804523 4291166009 1138776
-4.7462225 -1.2510964 9.8977995 4278226431 1142872
-4.1412568 -1.0825691 8.5571413 4278252031 1146968
nan nan nan 4278190080 1151064
-4.4372492 -1.1410069 9.0032949 4278242815 1155160
-4.4757352 -1.1415843 8.9998913 4278242559 1159256
-4.5908761 -1.1615469 9.1490908 4278239231 1163352
-4.0410628 -1.0142907 7.9820447 4279893989 1167448
-3.9078028 -0.97308922 7.6508489 4281466829 1171544
-4.206378 -1.0392227 8.1633921 4278845429 1175640
-3.4619207 -0.84864205 6.6601672 4286316419 1179736
nan nan nan 4278190080 1183832
-4.5155587 -1.0899625 8.5381565 4278249471 1187928
-3.613332 -0.86555099 6.7739005 4285595534 1192024
nan nan nan 4278190080 1196120
-3.6613648 -0.86391753 6.7482686 4285595534 1200216
nan nan nan 4278190080 1204312
-3.5765994 -0.83146036 6.4822149 4286775164 1208408
-4.6508551 -1.0732743 8.3592768 4278251007 1212504
nan nan nan 4278190080 1216600
-5.2274189 -1.1889075 9.2416687 4278232575 1220696
nan nan nan 4278190080 1224792
nan nan nan 4278190080 1228888
nan nan nan 4278190080 1232984
nan nan nan 4278190080 1237080
nan nan nan 4278190080 1241176
nan nan nan 4278190080 1245272
nan nan nan 4278190080 1249368
nan nan nan 4278190080 1253464
-3.8197701 -0.8157475 6.2828588 4287037304 1257560
nan nan nan 4278190080 1261656
-3.2221191 -0.67890805 5.2178473 4292476709 1265752
-4.0521145 -0.84811699 6.511353 4285595534 1269848
-4.8509536 -1.0086142 7.7352142 4279042034 1273944
-3.4897003 -0.72082335 5.5221 4290707264 1278040
-2.9353683 -0.60237199 4.6096382 4294965504 1282136
nan nan nan 4278190080 1286232
-2.9876244 -0.60521013 4.6211596 4294965760 1290328
-2.8093033 -0.56545079 4.3127446 4294961664 1294424
-2.1041715 -0.4208343 3.2061698 4294946304 1298520
-2.7347057 -0.54349041 4.1359577 4294959616 1302616
-2.7664983 -0.54636174 4.1531162 4294959872 1306712
2.7660029 -0.5289222 4.1532869 4294959872 89
2.7671072 -0.53247172 4.185894 4294960128 4185
2.929466 -0.56729341 4.464673 4294963968 8281
2.966203 -0.57807785 4.5546265 4294964992 12377
3.0390201 -0.59607786 4.7016964 4294901504 16473
2.8713951 -0.566845 4.4760342 4294963712 20569
2.8484335 -0.56597537 4.4741096 4294963456 24665
2.9731677 -0.59463352 4.7057719 4294966528 28761
2.8902936 -0.58187425 4.6098166 4294965248 32857
2.9835527 -0.60464025 4.7953334 4294704899 36953
2.7715249 -0.5654282 4.489162 4294963200 41049
2.7527831 -0.56538641 4.4936094 4294963200 45145
2.8744926 -0.59438658 4.7290964 4294966272 49241
2.9257619 -0.60911769 4.8514013 4294639364 53337
2.6484571 -0.55517489 4.4263754 4294961920 57433
2.8938208 -0.61080647 4.8749895 4294573829 61529
2.5700004 -0.54623705 4.3641219 4294960640 65625
2.8104477 -0.60153443 4.8108582 4294966784 69721
2.7995391 -0.60343421 4.8309321 4294966784 73817
2.7646954 -0.60016519 4.8096423 4294966272 77913
2.6256399 -0.57406467 4.605072 4294963456 82009
2.8022079 -0.61709273 4.9551897 4294508294 86105
2.6962042 -0.5980671 4.8071547 4294966016 90201
2.7323623 -0.61052787 4.9121451 4294835969 94297
2.4211023 -0.54497141 4.388967 4294960128 98393
2.6784482 -0.60738045 4.8963251 4294966784 102489
2.4307067 -0.55532998 4.4810333 4294961152 106585
2.47789 -0.57038224 4.606883 4294962688 110681
2.284678 -0.52990627 4.2840285 4294958336 114777
2.4841027 -0.5805757 4.698072 4294963712 118873
2.2171988 -0.52219743 4.2296281 4294957312 122969
2.5367348 -0.60210443 4.8813524 4294965760 127065
2.3016825 -0.55059856 4.4679117 4294960384 131161
2.5153656 -0.60647154 4.9257712 4294966272 135257
2.4869432 -0.60439658 4.9133916 4294966016 139353
2.4479432 -0.59969693 4.8795495 4294965248 143449
2.0870135 -0.51541626 4.1975441 4294956288 147545
2.3408167 -0.58281559 4.7506304 4294963456 151641
2.1641009 -0.54325169 4.4320412 4294959104 155737
2.3983767 -0.60705805 4.9569011 4294966016 159833
2.2086318 -0.56370938 4.6069269 4294961408 163929
2.2252786 -0.57275099 4.6848283 4294962176 168025
2.121177 -0.55060333 4.5075035 4294959872 172121
2.1057236 -0.55128384 4.5168805 4294959872 176217
2.2293956 -0.5887149 4.8275986 4294963712 180313
2.1333556 -0.56827378 4.663846 4294961408 184409
2.1911008 -0.58879799 4.8362546 4294963712 188505
2.1768029 -0.59015548 4.8513651 4294963712 192601
2.0905771 -0.57186192 4.7047701 4294961664 196697
2.0742686 -0.57253569 4.7140999 4294961664 200793
2.0190115 -0.56237304 4.6340828 4294960640 204889
2.0336196 -0.5716626 4.7143555 4294961664 208985
1.9680406 -0.55837435 4.6083403 4294960128 213081
1.8653065 -0.53419572 4.4122181 4294957568 217177
1.9520184 -0.5643276 4.6646438 4294960640 221273
1.9767958 -0.57695955 4.7726932 4294961920 225369
1.8794301 -0.55384171 4.584888 4294959616 229465
1.8745939 -0.55780602 4.6211553 4294959872 233561
1.9435505 -0.58402258 4.8419037 4294962688 237657
1.8480258 -0.56084365 4.6531386 4294960128 241753
1.9523344 -0.59845424 4.9687653 4294963968 245849
1.9340819 -0.59887815 4.9758472 4294963968 249945
1.7617286 -0.55110484 4.5821605 4294958848 254041
1.8232845 -0.5762713 4.7947669 4294961664 258137
1.8245192 -0.58269984 4.8516231 4294962176 262233
1.6694837 -0.53882807 4.4894195 4294957568 266329
1.7434614 -0.56872272 4.7417245 4294960640 270425
1.6933759 -0.5583564 4.6584182 4294959616 274521
1.6687773 -0.5562591 4.6440191 4294959360 278617
1.687539 -0.56872863 4.751235 4294960640 282713
1.5277835 -0.52064133 4.3523526 4294955520 286809
1.5396881 -0.53062695 4.4386687 4294956544 290905
1.5142246 -0.52781546 4.4179788 4294956288 295001
1.5418373 -0.54365361 4.5533967 4294957824 299097
1.4417338 -0.51430273 4.3102636 4294954752 303193
1.4126518 -0.50989205 4.2759151 4294954240 307289
1.4127977 -0.51605189 4.3302135 4294954752 311385
1.405852 -0.51973921 4.3637652 4294955264 315481
1.3480635 -0.50449002 4.2382531 4294953472 319577
1.3459897 -0.50997126 4.2868085 4294953984 323673
1.2753239 -0.48927522 4.1152225 4294951936 327769
1.2466288 -0.48435894 4.076201 4294951424 331865
1.2544008 -0.49366745 4.1568823 4294952448 335961
1.2184862 -0.48580167 4.0929317 4294951424 340057
1.2519262 -0.50574505 4.2632952 4294953472 344153
1.153091 -0.47207078 3.9815969 4294950144 348249
1.1491326 -0.47685096 4.0240593 4294950400 352345
1.2046334 -0.50677675 4.2788682 4294953472 356441
1.1333747 -0.48346752 4.0841742 4294951168 360537
1.1526854 -0.49867949 4.2148595 4294952704 364633
1.0422964 -0.45741063 3.8679991 4294948352 368729
1.0731795 -0.47783905 4.042778 4294950400 372825
1.071602 -0.48420534 4.0986476 4294951168 376921
1.0478102 -0.48057461 4.0698948 4294950656 381017
1.1477591 -0.53445268 4.5283346 4294956288 385113
1.0254303 -0.48489338 4.1103611 4294951168 389209
1.0009952 -0.48079294 4.0774899 4294950656 393305
0.96375322 -0.47031158 3.9904149 4294949632 397401
0.99559516 -0.49375045 4.1911688 4294951936 401497
0.95995176 -0.48394263 4.1097198 4294950912 405593
0.9249239 -0.47412065 4.0280671 4294949888 409689
0.91545361 -0.47728777 4.0566902 4294950144 413785
0.91049886 -0.48296028 4.1066408 4294950656 417881
0.86036432 -0.46444446 3.9508183 4294948864 421977
0.83425748 -0.45846584 3.9015484 4294948352 426073
0.85873216 -0.48057488 4.0913191 4294950400 430169
0.85452521 -0.48715922 4.1489949 4294951168 434265
0.83139598 -0.48300147 4.1151628 4294950656 438361
0.77841258 -0.46100163 3.9291952 4294948352 442457
0.75524354 -0.45613718 3.8891761 4294947840 446553
0.74241382 -0.4574469 3.9017391 4294948096 450649
0.75096655 -0.47225732 4.0295033 4294949632 454745
0.74287063 -0.47700113 4.071384 4294949888 458841
0.6831221 -0.44806933 3.8257446 4294947072 462937
0.66796887 -0.44775936 3.8243682 4294947072 467033
0.67156029 -0.46028286 3.9326077 4294948352 471129
0.65046221 -0.4560712 3.8978689 4294947840 475225
0.66095704 -0.47433388 4.0551991 4294949632 479321
0.63997877 -0.47034585 4.0223379 4294949120 483417
0.63449478 -0.47782937 4.0875411 4294949888 487513
nan nan nan 4278190080 491609
nan nan nan 4278190080 495705
0.55268896 -0.44952035 3.8486183 4294947072 499801
0.53644252 -0.44826019 3.8388665 4294946816 503897
0.5114491 -0.43941402 3.7640817 4294946048 507993
0.4904066 -0.43354788 3.7147708 4294945280 512089
0.47630799 -0.43365353 3.7165926 4294945280 516185
0.47102347 -0.4420374 3.7893372 4294946304 520281
0.4449929 -0.43086615 3.6944351 4294945024 524377
nan nan nan 4278190080 528473
0.42093018 -0.43519899 3.7332215 4294945536 532569
nan nan nan 4278190080 536665
nan nan nan 4278190080 540761
nan nan nan 4278190080 544857
nan nan nan 4278190080 548953
nan nan nan 4278190080 553049
0.32149938 -0.41726515 3.5834916 4294943744 557145
nan nan nan 4278190080 561241
0.30641782 -0.43468574 3.7343192 4294945280 565337
0.28740782 -0.42760676 3.6740508 4294944768 569433
0.2834498 -0.44334456 3.8098316 4294946304 573529
nan nan nan 4278190080 577625
nan nan nan 4278190080 581721
nan nan nan 4278190080 585817
nan nan nan 4278190080 589913
nan nan nan 4278190080 594009
0.18126099 -0.40951556 3.5216391 4294942720 598105
0.17286217 -0.42178369 3.6274719 4294944000 602201
0.16104795 -0.42712715 3.6737487 4294944512 606297
0.14872362 -0.43200672 3.7160177 4294945024 610393
0.13528796 -0.43434554 3.736407 4294945280 614489
nan nan nan 4278190080 618585
nan nan nan 4278190080 622681
nan nan nan 4278190080 626777
nan nan nan 4278190080 630873
nan nan nan 4278190080 634969
nan nan nan 4278190080 639065
nan nan nan 4278190080 643161
0.021254521 -0.43217525 3.7189124 4294945024 647257
nan nan nan 4278190080 651353
-0.0073725251 -0.44972402 3.8699496 4294946816 655449
-0.023275517 -0.47326884 4.0725269 4294949120 659545
-0.037334915 -0.45548597 3.9194458 4294947328 663641
nan nan nan 4278190080 667737
nan nan nan 4278190080 671833
nan nan nan 4278190080 675929
-0.089679226 -0.4208025 3.6205246 4294944000 680025
-0.11731977 -0.4771004 4.1047006 4294949632 684121
-0.11082771 -0.3976759 3.4211822 4294941696 688217
-0.14089499 -0.4523471 3.8912635 4294947072 692313
-0.13966674 -0.4056986 3.4897218 4294942464 696409
-0.15678465 -0.41582018 3.5764966 4294943488 700505
-0.15470596 -0.37748256 3.2464683 4294939648 704601
-0.18749024 -0.42358905 3.6426644 4294944256 708697
-0.16867565 -0.35480049 3.0508099 4294937344 712793
-0.21240817 -0.41796446 3.5935447 4294943744 716889
-0.2260863 -0.4179171 3.5927157 4294943744 720985
-0.23936185 -0.41717353 3.5858884 4294943744 725081
-0.26992959 -0.44501904 3.8247478 4294946304 729177
-0.31351936 -0.49037644 4.213995 4294950912 733273
-0.32769141 -0.48754084 4.1890121 4294950656 737369
-0.34606043 -0.49092293 4.2174444 4294951168 741465
-0.33778879 -0.45789149 3.9330535 4294947840 745561
-0.35576189 -0.46173349 3.9653878 4294948096 749657
-0.38249406 -0.4761661 4.0886331 4294949632 753753
-0.39784142 -0.47584957 4.0851822 4294949632 757849
-0.44517928 -0.51237613 4.3979297 4294953216 761945
-0.48887485 -0.54220665 4.6530757 4294956288 766041
-0.45750779 -0.48961359 4.2008905 4294950912 770137
-0.54068714 -0.55901551 4.7953439 4294958080 774233
-0.50896364 -0.50896364 4.3650532 4294952960 778329
-0.59942186 -0.58039254 4.9765406 4294960128 782425
-0.49577549 -0.46526623 3.9884646 4294948608 786521
-0.47251976 -0.43020454 3.6870332 4294945024 790617
-0.52004945 -0.45975384 3.9393115 4294948096 794713
-0.57190281 -0.49135312 4.2089992 4294951168 798809
-0.63570225 -0.53120327 4.5491848 4294955264 802905
-0.60013491 -0.48810974 4.1790056 4294950912 807001
-0.66350657 -0.52563506 4.4990611 4294954752 811097
-0.72960669 -0.56336719 4.8206592 4294958592 815193
-0.68234092 -0.51386166 4.3957753 4294953728 819289
-0.72520524 -0.53298217 4.5579953 4294955520 823385
-0.73766387 -0.52938229 4.5258217 4294955264 827481
-0.81005269 -0.56796801 4.8542089 4294959104 831577
-0.82607263 -0.56618464 4.8374205 4294958848 835673
-0.92811435 -0.62214261 5.3137975 4294964736 839769
-1.0103641 -0.66271192 5.6584249 4294246154 843865
