# .PCD v0.7 - Point Cloud Data file format
VERSION 0.7
FIELDS x y z rgba label
SIZE 4 4 4 4 4
TYPE F F F U U
COUNT 1 1 1 1 1
WIDTH 980
HEIGHT 1
VIEWPOINT 0 0 0 1 0 0 0
POINTS 980
DATA ascii
-1.4024 1.1917108 3.2317271 4294944768 1089746
-1.4281874 1.2023345 3.2580204 4294945280 1093842
-1.529351 1.2756338 3.453985 4294947840 1097938
-1.417694 1.1717014 3.1700921 4294944256 1102034
-1.4856911 1.2167877 3.2894726 4294945792 1106130
-1.4397448 1.1685822 3.1566551 4294944000 1110226
-1.5117675 1.2161329 3.2824607 4294945792 1114322
-1.4776167 1.1781877 3.1774726 4294944512 1118418
-1.5111803 1.1944264 3.2186458 4294945280 1122514
-1.5085194 1.182 3.1825256 4294944768 1126610
-1.5767968 1.2248937 3.2952931 4294946304 1130706
-1.5246743 1.1743236 3.1566029 4294944512 1134802
-1.5455085 1.180325 3.1700468 4294944768 1138898
-1.5069823 1.1412711 3.0625651 4294943488 1142994
-1.5908628 1.1947974 3.2034445 4294945280 1147090
-1.5287371 1.1386889 3.0503705 4294943488 1151186
-1.5930713 1.1769221 3.1500506 4294944768 1155282
-1.5236061 1.1164886 2.9856601 4294942720 1159378
-1.6023481 1.164759 3.111999 4294944512 1163474
-1.5752919 1.1359675 3.0323644 4294943488 1167570
-1.6058147 1.148824 3.0639172 4294944000 1171666
-1.5984161 1.134562 3.0231514 4294943488 1175762
-1.6684626 1.1750652 3.128207 4294945024 1179858
-1.6340334 1.1419307 3.0372057 4294943744 1183954
-1.6895134 1.1716549 3.1133792 4294945024 1188050
-1.675361 1.1530051 3.0609426 4294944256 1192146
-1.6865199 1.1519248 3.0552161 4294944256 1196242
-1.6727089 1.1339337 3.0046432 4294943744 1200338
-1.6706264 1.1241019 2.9757438 4294943232 1204434
-1.7600607 1.1755387 3.1089251 4294945280 1208530
-1.7421542 1.1550547 3.0517778 4294944512 1212626
-1.7996669 1.184508 3.1265554 4294945792 1216722
-1.7461271 1.1409712 3.0086784 4294944000 1220818
-1.7848529 1.1579154 3.0503268 4294944768 1224914
-1.8064941 1.1636137 3.0622971 4294945024 1229010
-1.738844 1.1121229 2.9238408 4294943232 1233106
-1.7444943 1.1079069 2.9098184 4294942976 1237202
-1.8139768 1.1440063 3.0015762 4294944512 1241298
-1.8326918 1.1478105 3.0084543 4294944512 1245394
-1.8295574 1.1379721 2.9796088 4294944256 1249490
-1.8812869 1.1621602 3.0397737 4294945280 1253586
-1.7854619 1.0954869 2.8623841 4294942720 1257682
-1.818988 1.1085415 2.8934526 4294943232 1261778
-1.8334068 1.1098549 2.8937938 4294943488 1265874
-1.9276959 1.1591792 3.0191915 4294945280 1269970
-1.8715252 1.1179738 2.9087374 4294943744 1274066
-1.9895647 1.1806924 3.0685904 4294946304 1278162
-1.8161931 1.0707848 2.7799251 4294942208 1282258
-1.9569112 1.1462814 2.9726517 4294945024 1286354
-1.8653631 1.0856293 2.8122685 4294942720 1290450
-1.9684238 1.1382898 2.9454107 4294944768 1294546
-1.9267268 1.1071033 2.8614986 4294943744 1298642
-1.9689056 1.1242017 2.9024251 4294944256 1302738
-2.0103176 1.1406504 2.9415338 4294945024 1306834
3.3290896 1.9097912 4.8680038 4292411174 211
3.2520168 1.8773472 4.7907748 4292869919 4307
3.2690554 1.8991655 4.8519325 4292607779 8403
3.3142331 1.9377146 4.9559541 4292083499 12499
3.2019708 1.8841178 4.8242517 4292869919 16595
3.2026095 1.8966911 4.8617883 4292738849 20691
3.2081864 1.9123718 4.9073682 4292542244 24787
3.1006658 1.8603995 4.7792087 4293328664 28883
3.1854961 1.9239135 4.9476914 4292411174 32979
3.0654645 1.8637209 4.7980781 4293328664 37075
3.0940912 1.8937079 4.8804746 4292935454 41171
3.00476 1.8514178 4.776546 4293525269 45267
3.0771604 1.9088825 4.9300041 4292738849 49363
2.9904394 1.8677489 4.8287916 4293328664 53459
3.0377028 1.9103079 4.9439831 4292804384 57555
2.996171 1.8972293 4.9152012 4293000989 61651
3.017765 1.9242195 4.9902258 4292607779 65747
2.9733629 1.909212 4.9563689 4292869919 69843
2.9447734 1.9042175 4.9483824 4293000989 73939
2.8438549 1.8520479 4.8176608 4293721874 78035
2.9127288 1.9104995 4.974669 4292935454 82131
2.8508391 1.8834064 4.908957 4293328664 86227
2.7894218 1.8562335 4.842917 4293787409 90323
2.814177 1.8864264 4.9264841 4293328664 94419
2.7962413 1.8882368 4.9359941 4293328664 98515
2.7735999 1.8868728 4.9371872 4293394199 102611
2.8349988 1.943089 5.0891128 4292607779 106707
2.7164183 1.8758662 4.9177361 4293590804 110803
2.764039 1.9232666 5.0467439 4293000989 114899
2.7184138 1.9060142 5.006135 4293263129 118995
2.7072492 1.9128441 5.0287533 4293197594 123091
2.6807683 1.9088738 5.0229182 4293263129 127187
2.7367964 1.9640539 5.1728492 4292476709 131283
2.6429269 1.9116822 5.0394859 4293263129 135379
2.6252601 1.9140342 5.0501986 4293263129 139475
2.6057713 1.915085 5.0575109 4293263129 143571
2.6146994 1.9372065 5.1204557 4293000989 147667
2.5684109 1.9184456 5.0753169 4293263129 151763
2.5615366 1.9290584 5.1078591 4293132059 155859
2.5215635 1.9147142 5.0742435 4293328664 159955
2.5362401 1.9419746 5.1509166 4293000989 164051
2.4905617 1.9230919 5.1051769 4293263129 168147
2.4501925 1.9080222 5.0694213 4293525269 172243
2.4329865 1.9108863 5.0813079 4293525269 176339
2.3897462 1.8931755 5.0383849 4293787409 180435
2.3935421 1.9127432 5.0946436 4293525269 184531
2.349792 1.8943259 5.0497222 4293787409 188627
2.2850056 1.8584713 4.958137 4294311689 192723
2.2531343 1.8489846 4.9367938 4294442759 196819
2.1988277 1.8207488 4.8652763 4294835969 200915
2.2177541 1.8531917 4.9558468 4294442759 205011
2.1416981 1.8061326 4.833796 4294966528 209107
2.1494384 1.829522 4.9001827 4294835969 213203
2.0662544 1.7752326 4.7584066 4294965248 217299
2.1111555 1.8310021 4.9116449 4294835969 221395
2.0593829 1.8031917 4.8406777 4294966272 225491
2.033114 1.7973905 4.8287015 4294966016 229587
1.9683815 1.7571405 4.7240715 4294964480 233683
1.975113 1.7805206 4.7904191 4294965248 237779
1.8863362 1.7174106 4.6239805 4294962944 241875
1.8696042 1.7192843 4.6323566 4294962944 245971
1.860541 1.7283199 4.6599941 4294963200 250067
1.8346012 1.7217027 4.6454353 4294962944 254163
1.7076675 1.6191872 4.3718796 4294959360 258259
1.7272402 1.6548951 4.471354 4294960384 262355
1.7062596 1.6520927 4.4668498 4294960384 266451
1.6699691 1.6342478 4.4215879 4294959616 270547
1.6862683 1.6680384 4.5160103 4294960896 274643
1.6566942 1.6566942 4.4882846 4294960384 278739
1.563225 1.5804982 4.2846565 4294957568 282835
1.6360426 1.6726022 4.5372672 4294960896 286931
1.5724897 1.6257945 4.4131336 4294959104 291027
1.6636169 1.7396679 4.725224 4294963200 295123
1.7474153 1.8484219 5.0237474 4294901504 299219
1.7264285 1.8475814 5.024591 4294966784 303315
1.6143981 1.7481352 4.7570477 4294963456 307411
1.5404348 1.6880214 4.5962305 4294961152 311507
1.5110173 1.6758556 4.5658498 4294960640 315603
1.4947505 1.6781555 4.5748138 4294960896 319699
1.5039335 1.70944 4.6628017 4294961920 323795
1.4952604 1.72096 4.6969495 4294962176 327891
1.4410684 1.6797167 4.5869951 4294960640 331987
1.4492234 1.7110186 4.6750822 4294961920 336083
1.4500778 1.7344068 4.7416363 4294962688 340179
1.4226317 1.7241167 4.7160897 4294962176 344275
1.3717129 1.6847212 4.6108055 4294960896 348371
1.2918524 1.6082244 4.4038053 4294958080 352467
1.2419064 1.5673716 4.2942033 4294956544 356563
1.23524 1.5807617 4.333128 4294957056 360659
1.2410401 1.6107116 4.4174876 4294958080 364755
1.2255572 1.6135033 4.4273896 4294958080 368851
1.1782393 1.5738525 4.320735 4294956800 372947
1.1811826 1.6011587 4.3978434 4294957568 377043
1.1926988 1.6410818 4.5096946 4294959104 381139
1.1448952 1.5993574 4.397131 4294957568 385235
1.1359043 1.6113991 4.4323034 4294957824 389331
1.1118853 1.6021655 4.4089475 4294957568 393427
1.0780613 1.5782819 4.3452063 4294956800 397523
1.0402685 1.5477165 4.2629595 4294955520 401619
1.0189624 1.5410753 4.2465239 4294955264 405715
1.0138047 1.5590442 4.2979145 4294956032 409811
1.0304044 1.6116583 4.4448562 4294957824 413907
1.0010685 1.5930046 4.3952427 4294957056 418003
0.97706282 1.582323 4.3675637 4294956800 422099
0.95893866 1.5809529 4.3655591 4294956544 426195
0.96309304 1.6169361 4.4666967 4294957824 430291
0.90793377 1.5528214 4.2912483 4294955520 434387
0.89973003 1.5681009 4.3351302 4294956032 438483
0.85810632 1.5245967 4.216454 4294954496 442579
0.85908395 1.5565581 4.3064351 4294955776 446675
0.82357132 1.5223591 4.2133331 4294954496 450771
0.7972936 1.5041726 4.1644673 4294953728 454867
0.77244014 1.4879636 4.1210318 4294953216 458963
0.80267847 1.5794641 4.3759389 4294956288 463059
0.76537251 1.5391557 4.2656775 4294955008 467155
0.74130458 1.5242555 4.2257452 4294954496 471251
0.71627599 1.5066495 4.1782722 4294953728 475347
0.71278322 1.5345803 4.2570605 4294954752 479443
0.70777166 1.5605086 4.3303027 4294955776 483539
0.69329441 1.5663317 4.347744 4294955776 487635
0.65726566 1.5225267 4.2273626 4294954240 491731
0.64955258 1.5437418 4.287488 4294955008 495827
0.62185353 1.5173227 4.2152767 4294953984 499923
0.58802986 1.4741021 4.0963025 4294952704 504019
0.5699839 1.4691133 4.0834975 4294952448 508115
0.56090355 1.4876138 4.1359587 4294952960 512211
0.53863049 1.4711847 4.09129 4294952448 516307
0.51217586 1.441972 4.0110149 4294951424 520403
0.4993059 1.4503647 4.0352974 4294951680 524499
0.48557857 1.4567357 4.0539312 4294951936 528595
0.46585819 1.44495 4.0220017 4294951424 532691
0.45958474 1.4755089 4.1079164 4294952448 536787
0.4291977 1.4280578 3.9766128 4294950912 540883
0.4107478 1.4182423 3.9500587 4294950656 544979
0.39382121 1.4131231 3.9365454 4294950400 549075
0.37790436 1.4113572 3.9323382 4294950400 553171
0.36582613 1.4243869 3.9693303 4294950656 557267
0.35908937 1.4602968 4.070075 4294951936 561363
0.32926393 1.401286 3.9062197 4294949888 565459
0.31354442 1.3994787 3.9017687 4294949888 569555
0.28365394 1.3309916 3.7113624 4294947584 573651
0.27813125 1.3756222 3.8363435 4294949120 577747
0.26274437 1.3737776 3.8317022 4294948864 581843
0.24375157 1.3517132 3.7706268 4294948096 585939
0.22968972 1.3559103 3.7827735 4294948352 590035
0.22183478 1.3998539 3.9057934 4294949888 594131
0.20317611 1.3770825 3.8426466 4294949120 598227
0.19108982 1.3987775 3.9035506 4294949888 602323
0.17276822 1.374634 3.8365054 4294948864 606419
0.1576027 1.373395 3.8333502 4294948864 610515
0.13511436 1.3013645 3.6325631 4294946304 614611
0.12277843 1.3216738 3.6894913 4294947072 618707
0.11187691 1.3648983 3.8103724 4294948608 622803
0.097300179 1.3696871 3.8239324 4294948864 626899
0.083388247 1.3872771 3.8732071 4294949376 630995
0.068958707 1.4021604 3.9149039 4294949888 635091
0.051907957 1.3570223 3.7889869 4294948352 639187
0.037243716 1.36312 3.8060958 4294948608 643283
0.022700289 1.3847176 3.8664572 4294949376 647379
0.0076736771 1.4042829 3.9211166 4294949888 651475
-0.0075336532 1.3786585 3.8495669 4294949120 655571
-0.02287716 1.3955067 3.8965828 4294949632 659667
-0.037593767 1.3759319 3.8418691 4294948864 663763
-0.052707534 1.3779255 3.8473513 4294949120 667859
-0.067300647 1.3684466 3.8207729 4294948608 671955
-0.083023481 1.3812089 3.8562648 4294949120 676051
-0.096390158 1.3568769 3.7881684 4294948352 680147
-0.11364529 1.3864725 3.8706005 4294949376 684243
-0.12747538 1.3722351 3.8306346 4294948864 688339
-0.14127341 1.3606859 3.7981501 4294948352 692435
-0.15404455 1.3423883 3.7468057 4294947840 696531
-0.17285293 1.375308 3.8383865 4294948864 700627
-0.18657842 1.365754 3.8113925 4294948608 704723
-0.20108818 1.3629309 3.8031576 4294948608 708819
-0.21702971 1.3695322 3.8211915 4294948864 712915
-0.23528217 1.3889238 3.8748758 4294949376 717011
-0.24593823 1.3638393 3.8044524 4294948608 721107
-0.26351732 1.3778192 3.8429747 4294949120 725203
-0.27431843 1.3567642 3.7837522 4294948352 729299
-0.29154718 1.368029 3.8146384 4294948864 733395
-0.29740334 1.3274343 3.7009077 4294947328 737491
-0.30949068 1.3171347 3.6716402 4294947072 741587
-0.31257907 1.2711549 3.5429068 4294945536 745683
-0.33661535 1.3106512 3.652384 4294946816 749779
-0.33322245 1.2444839 3.4673944 4294944512 753875
-0.371135 1.3317198 3.7097793 4294947584 757971
-0.38776073 1.338872 3.7289977 4294947840 762067
-0.39867789 1.3265101 3.6938398 4294947328 766163
-0.4128828 1.3255712 3.6904793 4294947328 770259
-0.42142883 1.3071437 3.6384192 4294946816 774355
-0.42307505 1.2692251 3.5321105 4294945536 778451
-0.44749004 1.299852 3.6165314 4294946560 782547
-0.46445391 1.3076164 3.637289 4294946816 786643
-0.4946155 1.3509647 3.756964 4294948352 790739
-0.5229277 1.3868952 3.8559344 4294949632 794835
-0.52622914 1.3563371 3.7700284 4294948608 798931
-0.51949549 1.302297 3.6188822 4294946560 803027
-0.54293603 1.3247639 3.6803291 4294947328 807123
-0.55500549 1.319039 3.6634128 4294947328 811219
-0.57360578 1.3287323 3.6892838 4294947584 815315
-0.56629676 1.2794112 3.5513244 4294945792 819411
-0.59226674 1.3058411 3.6236181 4294946816 823507
-0.58581728 1.2612301 3.4987628 4294945280 827603
-0.60674101 1.2762483 3.5393186 4294945792 831699
-0.62798417 1.2912483 3.5797713 4294946304 835795
-0.63689512 1.2807891 3.5496299 4294946048 839891
-0.64013648 1.2596234 3.4898136 4294945280 843987
-0.68076819 1.3113745 3.6319544 4294947072 848083
-0.68139452 1.2855176 3.5590971 4294946304 852179
-0.71472609 1.3211604 3.6564889 4294947584 856275
-0.70788223 1.2825985 3.5484877 4294946048 860371
-0.72276425 1.2841345 3.5514271 4294946304 864467
-0.74878532 1.3050258 3.6078401 4294947072 868563
-0.7826612 1.33857 3.6991611 4294948096 872659
-0.78943032 1.3253739 3.661272 4294947840 876755
-0.81128514 1.3375242 3.693368 4294948096 880851
-0.83545357 1.3529911 3.7345567 4294948608 884947
-0.83942348 1.3357782 3.6855319 4294948096 889043
-0.83961254 1.3132401 3.6218367 4294947328 893139
-0.86313033 1.3273349 3.659147 4294947840 897235
-0.82885581 1.2535588 3.4542549 4294945280 901331
-0.83726746 1.2456906 3.4310732 4294945024 905427
-0.84005666 1.2298429 3.3859107 4294944512 909523
-0.85680443 1.2346079 3.3974776 4294944768 913619
-0.83196616 1.1802311 3.2463357 4294942976 917715
-0.87964648 1.2288191 3.3784058 4294944512 921811
-0.84924018 1.1685034 3.2110484 4294942464 925907
-0.87334591 1.1838689 3.2516892 4294942976 930003
-0.78458279 1.0480194 2.8771524 4294938368 934099
-0.35213688 0.46360469 1.272113 4293803776 938195
-0.75973189 0.98603505 2.7042692 4294936064 942291
-0.92636532 1.1854885 3.2496192 4294943232 946387
-0.95456648 1.2047287 3.3006535 4294944000 950483
-0.97519845 1.2140225 3.3243613 4294944256 954579
-0.99494261 1.2219765 3.3443491 4294944512 958675
-1.0224741 1.2391572 3.3895483 4294945280 962771
-1.0293814 1.2312208 3.3659933 4294945024 966867
-1.0500931 1.2397872 3.3875184 4294945280 970963
-1.0771936 1.2555825 3.4287629 4294945792 975059
-1.0679613 1.2291629 3.3547068 4294945024 979155
-1.0877361 1.2363708 3.3724215 4294945280 983251
-1.1164441 1.2534311 3.4169741 4294945792 987347
-1.1152394 1.2369019 3.3699253 4294945280 991443
-1.1250906 1.2328837 3.3569584 4294945024 995539
-1.176122 1.2735522 3.4656062 4294946560 999635
-1.16415 1.2458447 3.3881373 4294945536 1003731
-1.201251 1.2706875 3.4535475 4294946560 1007827
-1.1943032 1.2488998 3.3922174 4294945792 1011923
-1.1837274 1.2238538 3.3220868 4294945024 1016019
-1.1521201 1.1778657 3.1951959 4294943232 1020115
-1.1940358 1.2072295 3.2727427 4294944512 1024211
-1.2188792 1.2188792 3.3021648 4294944768 1028307
-1.2538749 1.2403195 3.3580134 4294945536 1032403
-1.2412068 1.2146569 3.286351 4294944768 1036499
-1.2698295 1.2295175 3.3243113 4294945280 1040595
-1.3164629 1.2613231 3.4079633 4294946560 1044691
-1.3141989 1.2461057 3.364542 4294946048 1048787
-1.31162 1.2309049 3.3211827 4294945536 1052883
-1.3038161 1.2111591 3.2655962 4294944768 1056979
-1.3083338 1.2031411 3.2416854 4294944512 1061075
-1.3319727 1.2126915 3.2650681 4294945024 1065171
-1.3457012 1.2131199 3.2638502 4294945024 1069267
-1.3521482 1.2070396 3.2451255 4294944768 1073363
-1.3731502 1.2139444 3.2612696 4294945024 1077459
-1.3742797 1.2033167 3.2303104 4294944768 1081555
-1.3975991 1.2121358 3.2515419 4294945024 1085651
-1.4173231 1.2177001 3.2639735 4294945280 1089747
-1.385447 1.1792409 3.158473 4294944000 1093843
-1.485427 1.2526873 3.352597 4294946560 1097939
-1.4925481 1.2471977 3.335284 4294946304 1102035
-1.4769293 1.2229776 3.2679543 4294945536 1106131
-1.4600372 1.1981472 3.1990561 4294944768 1110227
-1.4545267 1.1830151 3.156116 4294944256 1114323
-1.4774573 1.1910778 3.1750677 4294944512 1118419
-1.5238951 1.2177852 3.2436042 4294945536 1122515
-1.5554248 1.2322197 3.2793562 4294946048 1126611
-1.5602359 1.2254213 3.2585628 4294945792 1130707
-1.6102442 1.2539349 3.3315778 4294947072 1134803
-1.5910192 1.2285085 3.261286 4294946048 1138899
-1.6097864 1.2325979 3.2693574 4294946304 1142995
-1.6092305 1.2219468 3.2383194 4294945792 1147091
-1.6373277 1.2330493 3.2649307 4294946304 1151187
-1.6134394 1.2051405 3.1882424 4294945280 1155283
-1.620881 1.2008955 3.1742268 4294945280 1159379
-1.5778742 1.1596425 3.0624774 4294943744 1163475
-1.6057587 1.1707324 3.0889893 4294944256 1167571
-1.6109394 1.1652249 3.0717106 4294944000 1171667
-1.6434965 1.1794504 3.106391 4294944768 1175763
-1.6379248 1.1663045 3.0689571 4294944256 1179859
-1.6617467 1.1741298 3.0867176 4294944512 1183955
-1.6467967 1.1546506 3.0326827 4294943744 1188051
-1.6843007 1.1719658 3.0752945 4294944512 1192147
-1.6991947 1.1734061 3.0761795 4294944512 1196243
-1.6633285 1.1400342 2.9858449 4294943488 1200339
-1.6955714 1.1534928 3.0182266 4294944000 1204435
-1.7121658 1.1561857 3.0223572 4294944000 1208531
-1.7796293 1.1929383 3.1154099 4294945536 1212627
-1.739777 1.1577425 3.0205524 4294944256 1216723
-1.7650322 1.1660682 3.039269 4294944512 1220819
-1.6925769 1.1101849 2.8907635 4294942464 1224915
-1.7387425 1.1323483 2.945534 4294943488 1229011
-1.779488 1.1506937 2.9902427 4294944256 1233107
-1.8088325 1.1614609 3.0151854 4294944512 1237203
-1.7695769 1.1283364 2.9262016 4294943488 1241299
-1.9007223 1.2035716 3.1181238 4294946304 1245395
-1.7538022 1.1029066 2.8543832 4294942464 1249491
-1.8520818 1.1567611 2.9906363 4294944512 1253587
-1.8396559 1.1412103 2.9473639 4294944000 1257683
-1.8269386 1.1256894 2.9042106 4294943488 1261779
-1.8169708 1.112059 2.8660047 4294942976 1265875
-1.8793942 1.1426218 2.9416358 4294944256 1269971
-1.8312358 1.1059939 2.8442633 4294942976 1274067
-1.9344885 1.160693 2.9817221 4294945024 1278163
-1.8452145 1.0999161 2.8225126 4294942720 1282259
-1.9713597 1.1675043 2.9926636 4294945280 1286355
-1.9346446 1.1383921 2.9148335 4294944256 1290451
-2.0581129 1.2033056 3.0776088 4294946816 1294547
-1.8978697 1.102572 2.8168185 4294942976 1298643
-2.0200222 1.1661327 2.975837 4294945536 1302739
-1.925276 1.1044687 2.8152595 4294943232 1306835
3.2518296 1.8858573 4.7519078 4293000989 212
3.2681055 1.907254 4.8112898 4292738849 4308
3.2807775 1.9268059 4.8661327 4292476709 8404
3.236033 1.9126713 4.8358455 4292738849 12500
3.2030761 1.9053668 4.8227487 4292869919 16596
3.2057767 1.9193161 4.8634257 4292673314 20692
3.1458306 1.895696 4.8088136 4293066524 24788
3.2196634 1.9529107 4.9593787 4292280104 28884
3.1289353 1.910406 4.8566799 4292869919 32980
3.1933811 1.9627093 4.9950089 4292149034 37076
3.1114173 1.9251245 4.904604 4292738849 41172
3.0594592 1.9057237 4.860301 4293066524 45268
3.0832222 1.9335461 4.9364796 4292673314 49364
3.0284886 1.9121857 4.8870525 4293000989 53460
3.0019586 1.9084617 4.8825917 4293066524 57556
2.981389 1.9085016 4.8877568 4293132059 61652
3.0020645 1.9351287 4.9610133 4292738849 65748
2.962657 1.9231282 4.9352813 4292935454 69844
2.9418912 1.9231445 4.94032 4293000989 73940
2.8613143 1.8837835 4.8440409 4293590804 78036
2.9050899 1.9263141 4.9583755 4293000989 82132
2.8861406 1.9275669 4.9665036 4293000989 86228
2.8661966 1.9281687 4.9729376 4293000989 90324
2.8076434 1.9026155 4.9118381 4293394199 94420
2.8299527 1.9318866 4.9922147 4293000989 98516
2.8117361 1.9337219 5.0017881 4293000989 102612
2.7510283 1.9061433 4.9351625 4293459734 106708
2.7302437 1.9060191 4.9395051 4293459734 110804
2.7285483 1.9193211 4.9786825 4293328664 114900
2.7256894 1.9320021 5.0162449 4293132059 118996
2.6470964 1.8907832 4.9137836 4293721874 123092
2.6808019 1.9297601 5.019702 4293197594 127188
2.6127377 1.8955156 4.935102 4293721874 131284
2.629766 1.9229515 5.0110993 4293394199 135380
2.6453857 1.9497864 5.0855966 4293000989 139476
2.6014764 1.9328239 5.0458422 4293263129 143572
2.5802588 1.9325826 5.0496998 4293328664 147668
2.5752873 1.9446048 5.0855618 4293197594 151764
2.5233655 1.9210807 5.028429 4293525269 155860
2.4946322 1.9149666 5.0167675 4293590804 159956
2.4835744 1.9224321 5.0406184 4293525269 164052
2.486445 1.9408959 5.0933876 4293328664 168148
2.4592929 1.9360391 5.0849261 4293394199 172244
2.4428468 1.9395994 5.0985274 4293394199 176340
2.4400895 1.9541843 5.141149 4293197594 180436
2.3951952 1.9349831 5.09481 4293459734 184532
2.3809903 1.9404546 5.113389 4293394199 188628
2.3318129 1.9172684 5.0563874 4293787409 192724
2.2944753 1.9034885 5.0240498 4293984014 196820
2.2164772 1.8554221 4.9010954 4294639364 200916
2.1618245 1.8261987 4.8277044 4294966528 205012
2.1445172 1.828275 4.8369474 4294966528 209108
2.0853553 1.7943754 4.7509589 4294965248 213204
2.0833502 1.8094826 4.7946272 4294965760 217300
2.1228447 1.861262 4.9355679 4294639364 221396
2.068763 1.8312017 4.859529 4294966528 225492
2.0695632 1.8496095 4.9120278 4294835969 229588
1.9340128 1.7453287 4.638515 4294963456 233684
1.9965096 1.8194792 4.8391333 4294966016 237780
1.8897426 1.7393153 4.6292648 4294962944 241876
1.8927826 1.759622 4.6866841 4294963712 245972
1.8274332 1.7161175 4.5740666 4294962176 250068
1.881641 1.7851466 4.7613826 4294964480 254164
1.7110161 1.6400931 4.3775568 4294959360 258260
1.7094218 1.6557227 4.4223232 4294959872 262356
1.6670593 1.6317776 4.3613219 4294959104 266452
1.7252696 1.7068175 4.5649886 4294961664 270548
1.6854864 1.6854864 4.5109506 4294960896 274644
1.6807915 1.6991608 4.5505376 4294961408 278740
1.5456926 1.5798515 4.2338018 4294957056 282836
1.5494527 1.6013896 4.2942977 4294957824 286932
1.5071335 1.5752524 4.2268977 4294956800 291028
1.5888494 1.6796408 4.5098767 4294960384 295124
1.6330708 1.7463474 4.6919193 4294962688 299220
1.7538252 1.8974131 5.1009259 4294508294 303316
1.7434591 1.9085203 5.1339464 4294377224 307412
1.7238611 1.9096664 5.1401343 4294377224 311508
1.6573859 1.8582813 5.0047941 4294966528 315604
1.532746 1.7396196 4.6879969 4294962432 319700
1.4146004 1.6254724 4.3829441 4294958336 323796
1.4688104 1.7089932 4.6107874 4294961152 327892
1.4149554 1.667304 4.5008903 4294959616 331988
1.4463102 1.7262411 4.6626134 4294961664 336084
1.4135412 1.7091838 4.6190872 4294961152 340180
1.4268734 1.7481562 4.7270103 4294962432 344276
1.3780684 1.7110245 4.6291142 4294961152 348372
1.3236575 1.6658275 4.5092292 4294959616 352468
1.2523581 1.5978361 4.3274612 4294957056 356564
1.2765638 1.6514986 4.4751291 4294958848 360660
1.2307866 1.6148618 4.378089 4294957568 364756
1.2426143 1.6538392 4.4860144 4294958848 368852
1.2000356 1.620486 4.3977475 4294957824 372948
1.2129261 1.662158 4.5130525 4294959104 377044
1.1593775 1.6126679 4.3807817 4294957568 381140
1.1576819 1.6348944 4.4432836 4294958080 385236
1.023066 1.4671878 3.9893708 4294952448 389332
1.0454661 1.522923 4.1428256 4294954240 393428
1.0911995 1.6149753 4.395225 4294957312 397524
1.0728734 1.6136713 4.3936558 4294957312 401620
1.045774 1.5989107 4.3553848 4294956800 405716
1.0522974 1.6359245 4.4581294 4294958080 409812
1.0265365 1.623156 4.4252191 4294957568 413908
1.0219606 1.6440235 4.4839983 4294958336 418004
0.97950292 1.603611 4.3755741 4294956800 422100
0.96821421 1.6136904 4.4048457 4294957312 426196
0.91817987 1.5583787 4.2555585 4294955264 430292
0.9161095 1.5839276 4.3270221 4294956032 434388
0.89932734 1.5845292 4.3303213 4294956032 438484
0.89267164 1.6033423 4.3833704 4294956800 442580
0.84248829 1.5431716 4.2204289 4294954752 446676
0.86585069 1.6180038 4.4266953 4294957312 450772
0.82917553 1.5814173 4.3281302 4294956032 454868
0.82207596 1.6008848 4.3829217 4294956544 458964
0.76732033 1.5263898 4.1803837 4294953984 463060
0.78233111 1.5904534 4.3572965 4294956288 467156
0.74195302 1.5422618 4.2266459 4294954496 471252
0.70164359 1.4920007 4.0901995 4294952704 475348
0.63690144 1.3861972 3.8013196 4294949120 479444
0.65794569 1.4665055 4.0227718 4294951936 483540
0.63516247 1.4506797 3.980547 4294951424 487636
0.61792094 1.4470301 3.9716825 4294951168 491732
0.59652317 1.433205 3.9348423 4294950656 495828
0.59712631 1.4729116 4.0449581 4294952192 499924
0.57573843 1.4590632 4.0080013 4294951680 504020
0.60227257 1.5693017 4.3119535 4294955264 508116
0.56394804 1.5120347 4.1556563 4294953472 512212
0.56272489 1.5537926 4.2714715 4294954752 516308
0.53794938 1.5310867 4.2100511 4294953984 520404
0.51920593 1.5246524 4.1933188 4294953728 524500
0.48671484 1.4761024 4.0607061 4294952192 528596
0.46392676 1.4546856 4.0026636 4294951424 532692
0.45331615 1.4712893 4.049202 4294951936 536788
0.43527624 1.464111 4.0302625 4294951680 540884
0.40551263 1.4154687 3.8971226 4294949888 544980
0.37192154 1.3491272 3.7151623 4294947584 549076
0.3691043 1.393557 3.8381977 4294949120 553172
0.34770817 1.3686385 3.770226 4294948352 557268
0.32833511 1.3498222 3.7190156 4294947584 561364
0.3270705 1.4071639 3.8776228 4294949632 565460
0.30059838 1.3563585 3.7381916 4294947840 569556
0.29300353 1.3898885 3.8311558 4294949120 573652
0.27325279 1.3662639 3.7665517 4294948352 577748
0.26495299 1.4004658 3.8613405 4294949376 581844
0.25287849 1.4176521 3.9092033 4294949888 585940
0.24385311 1.4552524 4.0133467 4294951168 590036
0.22867885 1.4588134 4.0236011 4294951424 594132
0.21024632 1.4405767 3.9737086 4294950656 598228
0.19561058 1.4475183 3.9932356 4294950912 602324
0.17616762 1.4170004 3.9093885 4294949888 606420
0.16310301 1.4368598 3.9644964 4294950656 610516
0.15114702 1.4716946 4.0609055 4294951680 614612
0.1319285 1.4356925 3.9618225 4294950656 618708
0.11680074 1.4405425 3.9754364 4294950656 622804
0.099030636 1.4092821 3.8893652 4294949632 626900
0.084446788 1.4202415 3.919781 4294950144 630996
0.069658667 1.4318726 3.9520254 4294950400 635092
0.054000091 1.4271452 3.9390914 4294950144 639188
0.038572323 1.427176 3.9392614 4294950144 643284
0.023254197 1.4340088 3.9581785 4294950400 647380
0.0076999012 1.4244817 3.93191 4294950144 651476
-0.0077698668 1.4374254 3.9676375 4294950656 655572
-0.022955924 1.4156153 3.9074087 4294949888 659668
-0.038517088 1.4251323 3.9336205 4294950144 663764
-0.05381966 1.4223768 3.9259298 4294950144 667860
-0.070420876 1.4475402 3.9952683 4294950912 671956
-0.083434239 1.4032122 3.8727813 4294949376 676052
-0.098504134 1.4017895 3.8686869 4294949376 680148
-0.11376337 1.4030815 3.8720562 4294949376 684244
-0.12973805 1.4118552 3.8960428 4294949632 688340
-0.14506197 1.4124454 3.8974168 4294949888 692436
-0.16318031 1.4375408 3.9663754 4294950656 696532
-0.17676021 1.4217669 3.9225388 4294950144 700628
-0.19266631 1.4257307 3.9331305 4294950144 704724
-0.20905399 1.432407 3.9511733 4294950400 708820
-0.22195615 1.4159272 3.9053152 4294949888 712916
-0.23164904 1.3824217 3.8124917 4294948864 717012
-0.24595863 1.3788589 3.8022304 4294948608 721108
-0.25825837 1.3650799 3.7637751 4294948096 725204
-0.27801564 1.3900782 3.8322039 4294949120 729300
-0.28913122 1.3715199 3.7805238 4294948352 733396
-0.30949274 1.3964915 3.8487999 4294949376 737492
-0.32090533 1.3806392 3.8045309 4294948864 741588
-0.33627471 1.3824627 3.8089464 4294948864 745684
-0.3483991 1.3713582 3.7777176 4294948352 749780
-0.36046186 1.3609273 3.7483277 4294948096 753876
-0.36330271 1.3178627 3.6290677 4294946560 757972
-0.37708977 1.3162568 3.6239684 4294946560 762068
-0.39043573 1.3132838 3.6150799 4294946560 766164
-0.40559864 1.3164167 3.6229701 4294946560 770260
-0.42407498 1.3297266 3.6588309 4294947072 774356
-0.44977465 1.3640707 3.7525108 4294948352 778452
-0.45332271 1.3311858 3.6612194 4294947072 782548
-0.48548979 1.3817786 3.7994962 4294948864 786644
-0.4823707 1.3319191 3.6615279 4294947072 790740
-0.50120282 1.3438047 3.693295 4294947584 794836
-0.49503994 1.2898928 3.5442245 4294945792 798932
-0.54283148 1.3756688 3.7789197 4294948608 803028
-0.54024404 1.332602 3.6596355 4294947328 807124
-0.56324196 1.3532437 3.7153096 4294948096 811220
-0.56787395 1.3298315 3.6500061 4294947072 815316
-0.59928262 1.3687319 3.7556887 4294948608 819412
-0.60144621 1.340573 3.677326 4294947584 823508
-0.61668724 1.3422017 3.6806722 4294947584 827604
-0.61381876 1.3052468 3.5782287 4294946304 831700
-0.6479072 1.3467734 3.6908998 4294947840 835796
-0.64462489 1.3105011 3.5903232 4294946560 839892
-0.66299462 1.3188603 3.6120145 4294946816 843988
-0.66244954 1.2900333 3.5318689 4294946048 848084
-0.69705999 1.3294443 3.6385136 4294947328 852180
-0.70178717 1.3114204 3.587914 4294946816 856276
-0.73155701 1.3399806 3.6647205 4294947584 860372
-0.74314165 1.3347689 3.6491189 4294947584 864468
-0.76303083 1.3443877 3.6740444 4294947840 868564
-0.75074959 1.298025 3.5459845 4294946304 872660
-0.76726794 1.3022437 3.5561154 4294946560 876756
-0.77699697 1.294995 3.5349116 4294946304 880852
-0.8124814 1.3301687 3.6294663 4294947584 884948
-0.79722971 1.2824999 3.4979591 4294945792 889044
-0.84097677 1.3297496 3.6253037 4294947584 893140
-0.84244365 1.3096813 3.5690699 4294946816 897236
-0.87690216 1.3407182 3.6520762 4294947840 901332
-0.88296449 1.3280361 3.6159368 4294947584 905428
-0.91054338 1.3476042 3.667563 4294948096 909524
-0.91270846 1.329536 3.6167524 4294947584 913620
-0.91448814 1.3114753 3.5659792 4294947072 917716
-0.91588461 1.2934248 3.5152445 4294946304 921812
-0.94437444 1.3136035 3.5683787 4294947072 925908
-0.95420116 1.307609 3.5503891 4294946816 930004
-0.96290582 1.3002743 3.5287426 4294946560 934100
-0.9664219 1.286245 3.4889205 4294946304 938196
-0.97167361 1.2748909 3.4563859 4294945792 942292
-0.96117133 1.2434734 3.3694878 4294944768 946388
-0.98302245 1.2542011 3.3967853 4294945280 950484
-0.96208078 1.2107819 3.2774661 4294943744 954580
-0.98863769 1.2275032 3.3209648 4294944256 958676
-0.98121387 1.2021494 3.2506092 4294943488 962772
-1.0510522 1.2708802 3.4345672 4294945792 966868
-1.0189532 1.21617 3.2849002 4294944000 970964
-1.0360504 1.2208238 3.2956159 4294944256 975060
-1.0085908 1.1735176 3.1660981 4294942464 979156
-1.0959967 1.2593751 3.3957946 4294945536 983252
-1.0878686 1.2346975 3.3273125 4294944768 987348
-1.0940527 1.226665 3.3037012 4294944512 991444
-1.1108527 1.2305853 3.3122926 4294944512 995540
-1.1683724 1.2789875 3.4404943 4294946304 999636
-1.1606286 1.2556509 3.375639 4294945536 1003732
-1.2044905 1.288039 3.4605801 4294946816 1007828
-1.1543298 1.2202915 3.2765126 4294944256 1011924
-1.2092559 1.2639116 3.3914721 4294945792 1016020
-1.1728184 1.2121308 3.2504585 4294944256 1020116
-1.2136406 1.2404613 3.3242793 4294945280 1024212
-1.2033682 1.2165198 3.2579725 4294944256 1028308
-1.272539 1.272539 3.4057589 4294946304 1032404
-1.2253752 1.2122695 3.2422895 4294944256 1036500
-1.2686638 1.2418138 3.3190491 4294945280 1040596
-1.2356036 1.1967888 3.196542 4294943744 1044692
-1.3432404 1.287562 3.4366195 4294947072 1048788
-1.2715479 1.2063403 3.2175775 4294944256 1052884
-1.344649 1.2627414 3.3656571 4294946048 1056980
-1.3431965 1.2487003 3.3258646 4294945792 1061076
-1.3078989 1.2037876 3.2039337 4294944256 1065172
-1.3718349 1.2501943 3.3250484 4294945792 1069268
-1.4068853 1.2696282 3.3742583 4294946560 1073364
-1.4114993 1.2614849 3.3501389 4294946304 1077460
-1.4329607 1.2684102 3.3660278 4294946560 1081556
-1.4045273 1.2314576 3.2654953 4294945280 1085652
-1.4386113 1.2494981 3.3108234 4294946048 1089748
-1.3560506 1.1668342 3.0894213 4294942976 1093844
-1.4879072 1.2684923 3.355967 4294946816 1097940
-1.4015545 1.1839615 3.1298983 4294943744 1102036
-1.4529808 1.2162961 3.2128446 4294945024 1106132
-1.4681187 1.2179459 3.2146351 4294945024 1110228
-1.4753498 1.2130654 3.1992016 4294944768 1114324
-1.4393715 1.173056 3.0911787 4294943488 1118420
-1.4653622 1.183808 3.1169658 4294944000 1122516
-1.4842492 1.1886845 3.1272404 4294944000 1126612
-1.5326544 1.2169144 3.1988418 4294945280 1130708
-1.4703861 1.1575381 3.0402253 4294942976 1134804
-1.5721338 1.227193 3.2204559 4294945536 1138900
-1.5924317 1.2326354 3.2319708 4294945792 1142996
-1.633034 1.2535738 3.2840719 4294946560 1147092
-1.5611335 1.1885172 3.110944 4294944256 1151188
-1.6615585 1.2546462 3.2811708 4294946816 1155284
-1.5763224 1.1806463 3.0849442 4294944000 1159380
-1.663175 1.2356923 3.2259059 4294946048 1163476
-1.6348529 1.2049712 3.1429071 4294945024 1167572
-1.730005 1.2650235 3.2965775 4294947328 1171668
-1.6916114 1.2272475 3.1952212 4294946048 1175764
-1.7238506 1.2409041 3.2278464 4294946560 1179860
-1.6287751 1.1634108 3.0234818 4294943744 1183956
-1.7022557 1.2065797 3.1327603 4294945280 1188052
-1.6581633 1.1663886 3.0255902 4294944000 1192148
-1.723303 1.2030606 3.1177671 4294945280 1196244
-1.6848491 1.1674049 3.0225077 4294944000 1200340
-1.7896665 1.2308116 3.1836319 4294946304 1204436
-1.6918957 1.1549842 2.9846106 4294943744 1208532
-1.7253202 1.169173 3.0183651 4294944256 1212628
-1.7022036 1.1451188 2.9533746 4294943488 1216724
-1.7414969 1.1630937 2.9967878 4294944000 1220820
-1.686208 1.1180949 2.8780012 4294942464 1224916
-1.7583603 1.1576394 2.9768031 4294944000 1229012
-1.7079757 1.1165212 2.8682048 4294942464 1233108
-1.7407868 1.1299844 2.8998539 4294942976 1237204
-1.770889 1.1415138 2.9264543 4294943488 1241300
-1.8140283 1.1612291 2.973959 4294944256 1245396
-1.7442269 1.1088728 2.8369303 4294942464 1249492
-1.8303888 1.1557063 2.9536865 4294944256 1253588
-1.7736194 1.1122698 2.8397033 4294942464 1257684
-1.9415506 1.2093834 3.0843756 4294946304 1261780
-1.8671556 1.1552634 2.9432433 4294944256 1265876
-1.8582461 1.1421114 2.9066234 4294943744 1269972
-1.7596083 1.0743483 2.7312338 4294941440 1274068
-1.9285924 1.169802 2.9706893 4294945024 1278164
-1.9474933 1.1735709 2.9769981 4294945024 1282260
-1.9444789 1.1641701 2.9499338 4294944768 1286356
-1.8897886 1.1241508 2.8453822 4294943488 1290452
-2.0277379 1.1985033 3.0302002 4294946048 1294548
-1.9747338 1.1597643 2.9289753 4294944768 1298644
-2.0513089 1.197136 3.0199273 4294946304 1302740
-1.9664472 1.1404161 2.8735747 4294944256 1306836
3.3135662 1.9424353 4.8388953 4292476709 213
3.2462597 1.914986 4.7759485 4292869919 4309
3.2165651 1.9095165 4.7677097 4293000989 8405
3.2270758 1.9279974 4.8192687 4292738849 12501
3.1406159 1.8884089 4.7255521 4293328664 16597
3.1739242 1.920789 4.8119178 4292935454 20693
3.1380677 1.9114614 4.7937927 4293066524 24789
3.1188877 1.9122361 4.8009572 4293132059 28885
3.1037748 1.9155309 4.8144493 4293066524 32981
3.0865524 1.9175591 4.8247032 4293066524 37077
3.0601046 1.9138447 4.8205228 4293197594 41173
3.0539224 1.9228401 4.8483171 4293066524 45269
3.0234461 1.9165573 4.8375516 4293197594 49365
2.9780605 1.9006735 4.8025036 4293459734 53461
2.7949014 1.7960362 4.5428147 4294901504 57557
2.6896486 1.7403609 4.4065452 4294964736 61653
2.6972907 1.7574681 4.4544296 4294965504 65749
2.9075563 1.907765 4.8402634 4293459734 69845
2.8725665 1.898127 4.8207107 4293590804 73941
2.9360662 1.9538946 4.9673209 4292869919 78037
2.8624802 1.9185799 4.8824005 4293394199 82133
2.8418803 1.9185257 4.8871131 4293394199 86229
2.7872155 1.8953066 4.8326917 4293721874 90325
2.8043952 1.9209592 4.9029012 4293394199 94421
2.8192146 1.9453621 4.9699993 4293132059 98517
2.7992263 1.9459306 4.9762144 4293132059 102613
2.7164867 1.9025581 4.8699732 4293721874 106709
2.7307377 1.9269733 4.9371338 4293459734 110805
2.6944561 1.91583 4.9132051 4293590804 114901
2.7171135 1.9467441 4.9971619 4293197594 118997
2.6754384 1.9316872 4.9630852 4293459734 123093
2.6268764 1.9113848 4.9154644 4293721874 127189
2.6495306 1.9429891 5.0013037 4293328664 131285
2.6302407 1.944091 5.0086594 4293328664 135381
2.615262 1.9484224 5.0243559 4293328664 139477
2.577652 1.935827 4.9963188 4293525269 143573
2.5815754 1.9544722 5.048912 4293263129 147669
2.5500832 1.9463899 5.0324612 4293394199 151765
2.4983783 1.9226203 4.9753127 4293721874 155861
2.5220394 1.9569352 5.0685129 4293328664 159957
2.4948821 1.9520626 5.0602288 4293394199 164053
2.4736128 1.9517536 5.0637136 4293394199 168149
2.4794822 1.9730347 5.1232681 4293132059 172245
2.4351041 1.954354 5.0789971 4293459734 176341
2.3862031 1.9316882 5.0242572 4293787409 180437
2.4012477 1.9608442 5.1043005 4293394199 184533
2.3503003 1.9361506 5.0441127 4293721874 188629
2.3037615 1.9146818 4.9922299 4294049549 192725
2.308651 1.935954 5.0517459 4293787409 196821
2.2562835 1.9091629 4.9857697 4294180619 200917
2.1820133 1.8631803 4.8695464 4294835969 205013
2.1109343 1.8190999 4.758049 4294965504 209109
2.0414662 1.7756008 4.6478534 4294963968 213205
2.0526135 1.8020598 4.7207494 4294964992 217301
2.03264 1.8014392 4.7227001 4294964736 221397
2.0503845 1.8345547 4.8131351 4294966016 225493
1.9699476 1.7796146 4.6724892 4294963968 229589
1.99304 1.8180413 4.7768936 4294965248 233685
1.9973495 1.8399229 4.8379316 4294966016 237781
1.9612566 1.8246517 4.8012624 4294965504 241877
1.9028414 1.7880973 4.7084351 4294964224 245973
1.8178203 1.7255452 4.5469646 4294961920 250069
1.8040899 1.730076 4.5621157 4294961920 254165
1.7126347 1.6593921 4.3787551 4294959616 258261
1.7457062 1.709147 4.513175 4294961152 262357
1.7063667 1.6883099 4.4611969 4294960384 266453
1.6540991 1.6540991 4.3737297 4294959104 270549
1.6328664 1.650519 4.3672018 4294959104 274645
1.6332675 1.6689674 4.4189353 4294959616 278741
1.558903 1.6105794 4.2671132 4294957568 282837
1.5874704 1.6584189 4.3967242 4294959104 286933
1.5776982 1.6668338 4.4218612 4294959360 291029
1.5608566 1.6678867 4.4274378 4294959360 295125
1.5854996 1.713806 4.5521989 4294960896 299221
1.7036129 1.8630154 4.9515896 4294966016 303317
1.7156336 1.8983638 5.0486054 4294770434 307413
1.7287102 1.9357413 5.1511445 4294311689 311509
1.6823534 1.9066672 5.0768089 4294704899 315605
1.5955795 1.8305115 4.8768902 4294964736 319701
1.4449214 1.6782627 4.4738908 4294959616 323797
1.404906 1.6523108 4.4072499 4294958592 327893
1.4581007 1.7367187 4.6350136 4294961408 331989
1.4459087 1.7444189 4.6581917 4294961664 336085
1.4103923 1.7238128 4.6057267 4294960896 340181
1.3235692 1.6391221 4.3818359 4294958080 344277
1.3260895 1.6642869 4.4515157 4294958848 348373
1.3142855 1.6719143 4.4743123 4294959104 352469
1.264616 1.6309186 4.3668923 4294957568 356565
1.246784 1.6304098 4.3677878 4294957568 360661
1.2391425 1.6434017 4.404861 4294958080 364757
1.2251942 1.6482829 4.4201741 4294958080 368853
1.2076693 1.6484244 4.4227386 4294958080 372949
1.2057667 1.6702101 4.4834008 4294958848 377045
1.19907 1.6859105 4.527739 4294959360 381141
1.1868204 1.6941634 4.552062 4294959616 385237
nan nan nan 4278190080 389333
nan nan nan 4278190080 393429
1.1294811 1.6897037 4.5463805 4294959360 397525
1.0659107 1.6205308 4.3622003 4294957056 401621
1.0327744 1.5961059 4.2983513 4294956288 405717
1.0368935 1.6294041 4.3899326 4294957312 409813
1.0250016 1.6382506 4.4156432 4294957568 413909
1.0237936 1.6647774 4.4890065 4294958336 418005
0.99200743 1.6416407 4.4284549 4294957568 422101
0.99463505 1.6756464 4.5220222 4294958848 426197
0.96797103 1.6606475 4.4833207 4294958336 430293
0.94668269 1.6544828 4.4684048 4294958080 434389
0.88916451 1.5835596 4.2785077 4294955520 438485
0.87255174 1.5841473 4.2817092 4294955520 442581
0.86291963 1.5976828 4.3198814 4294956032 446677
0.84324783 1.5928015 4.3082266 4294955776 450773
0.79889208 1.5401322 4.1672487 4294953984 454869
0.77852643 1.5324678 4.1479559 4294953728 458965
0.75695938 1.5220581 4.1211791 4294953472 463061
0.74159068 1.523928 4.1276059 4294953472 467157
0.77983516 1.6385301 4.4394474 4294957312 471253
0.77908504 1.6745851 4.538589 4294958592 475349
0.73437101 1.6156163 4.3801322 4294956544 479445
0.71396863 1.6085799 4.3623772 4294956288 483541
0.66881889 1.5440634 4.1886449 4294953984 487637
0.66289943 1.5691417 4.257905 4294954752 491733
0.62600279 1.5202924 4.1265235 4294953216 495829
0.59453028 1.4823622 4.0246782 4294951936 499925
0.57642347 1.4765916 4.0100818 4294951680 504021
0.56961972 1.500266 4.0754309 4294952448 508117
0.56964278 1.5438145 4.1947799 4294953984 512213
0.56505221 1.577086 4.2862477 4294955008 516309
0.53425455 1.5370092 4.1783285 4294953728 520405
0.52347875 1.5538179 4.2250023 4294954240 524501
0.49959001 1.53153 4.1653309 4294953472 528597
0.48331437 1.5318607 4.167129 4294953472 532693
0.47372139 1.5541385 4.22861 4294954240 536789
0.45981497 1.5633709 4.2545948 4294954496 540885
0.42430839 1.4970881 4.0750132 4294952192 544981
0.40462765 1.4836347 4.0391569 4294951680 549077
0.37569451 1.4337729 3.9041164 4294950144 553173
0.36197564 1.4402009 3.9222991 4294950400 557269
0.34431559 1.4308225 3.897403 4294949888 561365
0.33459404 1.4550951 3.9641445 4294950912 565461
0.31064346 1.4168373 3.8604984 4294949376 569557
0.30011863 1.4390304 3.9215386 4294950144 573653
0.28381443 1.4344136 3.9094992 4294950144 577749
0.26207468 1.4002275 3.8168254 4294948864 581845
0.24154823 1.3687732 3.7315464 4294947840 585941
0.24232224 1.4617503 3.9854825 4294950912 590037
0.22490005 1.4502175 3.9544675 4294950656 594133
0.2112973 1.4634296 3.9908977 4294950912 598229
0.19327331 1.4456843 3.9428744 4294950400 602325
0.17901118 1.4554387 3.9698207 4294950656 606421
0.16121773 1.4356055 3.916034 4294950144 610517
0.15055726 1.4818004 4.0423341 4294951680 614613
0.13290413 1.4619454 3.9884272 4294950912 618709
0.11479166 1.4310694 3.9044158 4294949888 622805
0.096908204 1.3939873 3.8034344 4294948608 626901
0.082974218 1.4105617 3.8488221 4294949120 630997
0.069678731 1.4477693 3.9504902 4294950400 635093
0.054530971 1.4567559 3.9751282 4294950656 639189
0.039834693 1.4898175 4.0654345 4294951936 643285
0.024331708 1.5166764 4.1387877 4294952704 647381
0.0080995867 1.5146227 4.133214 4294952704 651477
-0.008066467 1.5084293 4.116313 4294952448 655573
-0.023470603 1.4630009 3.9923153 4294950912 659669
-0.039411508 1.4739903 4.0222449 4294951424 663765
-0.054582488 1.4581321 3.9788837 4294950912 667861
-0.071698889 1.4897436 4.0650244 4294951936 671957
-0.086090811 1.4635438 3.9933875 4294950912 676053
-0.10140444 1.4586638 3.9799016 4294950912 680149
-0.11550911 1.4400135 3.9288185 4294950144 684245
-0.13190344 1.4509379 3.9583967 4294950656 688341
-0.14426656 1.4198867 3.8734343 4294949632 692437
-0.1629172 1.4507389 3.9573145 4294950656 696533
-0.17562722 1.4279257 3.8947768 4294949888 700629
-0.19134241 1.4312412 3.9034832 4294949888 704725
-0.20583615 1.4256059 3.8877494 4294949632 708821
-0.22308719 1.4385278 3.9225917 4294950144 712917
-0.23069625 1.3916192 3.7942693 4294948608 717013
-0.24749291 1.4024597 3.8233826 4294948864 721109
-0.26040211 1.3912914 3.7924666 4294948608 725205
-0.28082263 1.4192927 3.8682873 4294949632 729301
-0.2910893 1.3957357 3.8035553 4294948864 733397
-0.31064346 1.4168373 3.8604984 4294949376 737493
-0.32400963 1.4090651 3.8387442 4294949120 741589
-0.33886075 1.4081547 3.8356583 4294949120 745685
-0.34799373 1.3845708 3.7707942 4294948352 749781
-0.36148003 1.3795258 3.7564032 4294948352 753877
-0.3746691 1.3737867 3.7400985 4294948096 757973
-0.38617706 1.3625492 3.7088039 4294947584 762069
-0.39219514 1.3334634 3.6289191 4294946816 766165
-0.40282002 1.3215324 3.5957186 4294946304 770261
-0.4144859 1.3137095 3.5736911 4294946048 774357
-0.42956239 1.3168552 3.5814757 4294946304 778453
-0.44539586 1.3220481 3.5947945 4294946304 782549
-0.46086007 1.325859 3.604321 4294946560 786645
-0.48082235 1.3419967 3.6473155 4294947072 790741
-0.49455008 1.3403023 3.6418064 4294947072 794837
-0.50355422 1.3262625 3.6027551 4294946560 798933
-0.51573324 1.3211248 3.5878701 4294946304 803029
-0.5393337 1.3447387 3.6510246 4294947328 807125
-0.56371254 1.3690162 3.7159147 4294948096 811221
-0.56605196 1.3398951 3.6358385 4294947072 815317
-0.57132602 1.3189873 3.5780714 4294946304 819413
-0.59831297 1.3480064 3.6557167 4294947328 823509
-0.60850549 1.3387121 3.6294115 4294947072 827605
-0.62422198 1.3417186 3.6364288 4294947072 831701
-0.65105504 1.3679472 3.7063274 4294948096 835797
-0.65217429 1.3401823 3.629925 4294947072 839893
-0.67036241 1.3479331 3.6497116 4294947328 843989
-0.6744917 1.3276837 3.5936635 4294946816 848085
-0.70721591 1.3633957 3.6890397 4294948096 852181
-0.71468413 1.3499589 3.6513834 4294947584 856277
-0.734384 1.359701 3.6764164 4294947840 860373
-0.72950435 1.3244399 3.5797596 4294946816 864469
-0.7257939 1.2926044 3.4923964 4294945536 868565
-0.74050927 1.2941611 3.4952528 4294945792 872661
-0.74175394 1.2725503 3.4355583 4294945024 876757
-0.76476204 1.2883829 3.4769247 4294945536 880853
-0.77124161 1.2763025 3.4429264 4294945280 884949
-0.79461104 1.2921066 3.4841144 4294945792 889045
-0.82042664 1.3112803 3.5343471 4294946304 893141
-0.82804465 1.301213 3.505722 4294946048 897237
-0.8530277 1.3183155 3.5502551 4294946560 901333
-0.87746727 1.3340356 3.5910027 4294947328 905429
-0.90449208 1.3531201 3.6407559 4294947840 909525
-0.90104485 1.3267353 3.5681417 4294947072 913621
-0.91014081 1.3193514 3.5466349 4294946816 917717
-0.93568915 1.3356785 3.5888457 4294947328 921813
-0.9596414 1.3492702 3.6236465 4294947840 925909
-0.98191535 1.3601346 3.6510546 4294948352 930005
-0.99845886 1.36286 3.6565661 4294948352 934101
-1.0049911 1.3520384 3.6257398 4294948096 938197
-1.026587 1.3615019 3.649276 4294948352 942293
-0.99980402 1.307436 3.5025566 4294946560 946389
-1.0315915 1.3303974 3.562227 4294947328 950485
-1.0086625 1.2831284 3.4338586 4294945792 954581
-1.0229219 1.2838013 3.4338202 4294945792 958677
-1.0154079 1.2574918 3.3616307 4294945024 962773
-1.0310529 1.2601758 3.3669698 4294945024 966869
-1.018277 1.2285019 3.2805181 4294944000 970965
-1.0421463 1.2412826 3.312777 4294944512 975061
-1.0187857 1.1981945 3.1959739 4294942976 979157
-1.0217493 1.1867523 3.1636288 4294942720 983253
-1.0531762 1.208245 3.219034 4294943488 987349
-1.0601375 1.2014891 3.1991587 4294943232 991445
-1.0759482 1.2048043 3.2060695 4294943232 995541
-1.133652 1.254396 3.3360043 4294945024 999637
-1.1353333 1.2415633 3.2998719 4294944512 1003733
-1.108858 1.1985922 3.183692 4294943232 1007829
-1.1711123 1.2514172 3.3219113 4294945024 1011925
-1.1159793 1.179029 3.1277878 4294942464 1016021
-1.1592375 1.2110471 3.2106724 4294943744 1020117
-1.1488016 1.1868833 3.1445615 4294942976 1024213
-1.1809981 1.2068123 3.1952846 4294943488 1028309
-1.1785954 1.191337 3.152226 4294942976 1032405
-1.2178972 1.2178972 3.220335 4294944000 1036501
-1.2529973 1.239738 3.2758889 4294944768 1040597
-1.2776448 1.2508878 3.3030956 4294945280 1044693
-1.277091 1.2373887 3.2651849 4294944768 1048789
-1.3428366 1.287746 3.3957155 4294946560 1052885
-1.3115475 1.2449715 3.2806106 4294945024 1056981
-1.33312 1.2527308 3.298703 4294945280 1061077
-1.3291456 1.2365682 3.2538204 4294944768 1065173
-1.3723677 1.2642008 3.324116 4294945792 1069269
-1.3790703 1.2579812 3.3053389 4294945792 1073365
-1.3313825 1.2027465 3.1578863 4294943744 1077461
-1.4401511 1.2885562 3.3806543 4294946816 1081557
-1.3700172 1.2141858 3.1831415 4294944256 1085653
-1.4098076 1.2377183 3.2423775 4294945024 1089749
-1.3786919 1.1991414 3.1388998 4294943744 1093845
-1.4417443 1.2424248 3.2496939 4294945280 1097941
-1.4469544 1.2355273 3.2291329 4294945024 1102037
-1.4520251 1.2286366 3.2085783 4294945024 1106133
-1.4632185 1.2270038 3.2017865 4294945024 1110229
-1.4561735 1.210242 3.1555147 4294944256 1114325
-1.423264 1.1724687 3.0545475 4294942976 1118421
-1.492537 1.2187966 3.1726663 4294944768 1122517
-1.5075876 1.220428 3.1742928 4294944768 1126613
-1.5046836 1.2076217 3.1383808 4294944512 1130709
-1.522099 1.2112023 3.1450608 4294944512 1134805
-1.4831723 1.1702667 3.0361903 4294943232 1138901
-1.5353764 1.2013196 3.1141174 4294944256 1142997
-1.5654328 1.214672 3.1460319 4294944768 1147093
-1.4616997 1.1248472 2.9108536 4294941696 1151189
-1.498943 1.1440911 2.9580889 4294942464 1155285
-1.5856159 1.200446 3.1010656 4294944512 1159381
-1.6178603 1.2150196 3.1359336 4294945024 1163477
-1.6093249 1.1989791 3.0917823 4294944512 1167573
