# .PCD v0.7 - Point Cloud Data file format
VERSION 0.7
FIELDS x y z rgba label
SIZE 4 4 4 4 4
TYPE F F F U U
COUNT 1 1 1 1 1
WIDTH 962
HEIGHT 1
VIEWPOINT 0 0 0 1 0 0 0
POINTS 962
DATA ascii
1.488359 -1.3187015 3.8249881 4294951680 258082
1.5006189 -1.3434861 3.8995523 4294952448 262178
1.4798149 -1.3388801 3.8888545 4294952448 266274
1.4249151 -1.3029972 3.7871912 4294950912 270370
1.448445 -1.338833 3.8939388 4294952192 274466
1.467226 -1.3710145 3.990195 4294953472 278562
1.4423832 -1.3626934 3.9685724 4294953216 282658
1.4428062 -1.3783233 4.016685 4294953728 286754
1.4307724 -1.3822716 4.0307865 4294953728 290850
1.419906 -1.3874511 4.0484476 4294953984 294946
1.3509742 -1.335356 3.8988795 4294951936 299042
1.3947109 -1.3947109 4.0747137 4294954240 303138
1.3371943 -1.3530191 3.9553218 4294952448 307234
1.3113179 -1.3427268 3.9276123 4294952192 311330
1.3094842 -1.3571018 3.9720442 4294952704 315426
1.2843642 -1.3474005 3.9459713 4294952192 319522
1.256538 -1.3345839 3.9107237 4294951680 323618
1.2347376 -1.3279253 3.8934641 4294951424 327714
1.219898 -1.3286786 3.8978825 4294951424 331810
1.1994175 -1.3232284 3.8840816 4294951168 335906
1.1862543 -1.3258135 3.8938389 4294951424 340002
1.1598943 -1.3135227 3.8598478 4294950912 344098
1.1802639 -1.354531 3.9825096 4294952448 348194
1.1655695 -1.3558666 3.9885731 4294952448 352290
1.155051 -1.3621635 4.0092006 4294952448 356386
1.1345129 -1.3566554 3.9950628 4294952448 360482
1.110502 -1.346779 3.9680216 4294951936 364578
1.1038905 -1.3580235 4.0031686 4294952448 368674
1.067119 -1.3319514 3.9282632 4294951424 372770
1.0687529 -1.3537537 3.9945362 4294952192 376866
1.0480984 -1.3475552 3.9781687 4294951936 380962
1.0428492 -1.3612764 4.0205765 4294952448 385058
1.0123591 -1.3419644 3.9654143 4294951680 389154
1.0193449 -1.3725038 4.0575337 4294952704 393250
0.98596537 -1.3488007 3.989265 4294951936 397346
0.99216413 -1.3793502 4.0814514 4294952960 401442
0.96938843 -1.3699621 4.0554667 4294952448 405538
0.9720301 -1.3967828 4.1366515 4294953472 409634
0.94583935 -1.3823806 4.0957341 4294952960 413730
0.93089545 -1.384201 4.1028605 4294952960 417826
0.89689726 -1.3572516 4.0246396 4294951936 421922
0.89843297 -1.3840724 4.1058235 4294952960 426018
0.86583817 -1.3583332 4.0310712 4294951936 430114
0.83108294 -1.3281792 3.9431319 4294950912 434210
0.83624053 -1.3618774 4.044724 4294952192 438306
0.82665771 -1.3724123 4.0775337 4294952448 442402
0.81127143 -1.3735387 4.0823913 4294952448 446498
0.8071059 -1.3940921 4.1449847 4294953216 450594
0.78182834 -1.3782747 4.0994058 4294952704 454690
0.7847957 -1.4126323 4.2030435 4294953984 458786
0.75487792 -1.3880013 4.1311669 4294952960 462882
0.73320633 -1.3777834 4.1021266 4294952448 466978
0.6990183 -1.3430576 4.0000372 4294951168 471074
0.69631177 -1.3686128 4.0774379 4294952192 475170
0.68082696 -1.3696636 4.0818353 4294952192 479266
0.66317552 -1.3663014 4.0730615 4294952192 483362
0.62147188 -1.3119962 3.9123354 4294950144 487458
0.59148139 -1.2802953 3.8189049 4294948864 491554
0.50640965 -1.124624 3.3555021 4294943232 495650
0.4776566 -1.0890571 3.2502799 4294941696 499746
0.46746027 -1.0950097 3.2689257 4294941952 503842
0.43437818 -1.0461785 3.1239648 4294940160 507938
0.45299894 -1.1226496 3.353159 4294942976 512034
0.48860225 -1.2470297 3.7255692 4294947584 516130
0.51245224 -1.3481436 4.0286155 4294951168 520226
0.48658067 -1.320719 3.9475844 4294950144 524322
0.46988872 -1.317229 3.9380393 4294950144 528418
0.44370261 -1.2859855 3.8454661 4294948864 532514
0.42959222 -1.2887766 3.8546174 4294949120 536610
0.43590599 -1.3552713 4.0543108 4294951424 540706
0.4082076 -1.3170472 3.9407332 4294950144 544802
0.40868533 -1.3702978 4.1008425 4294951936 548898
0.38477084 -1.3427716 4.0191965 4294950912 552994
0.38196859 -1.3897154 4.1604328 4294952704 557090
0.35613841 -1.353326 4.0521655 4294951424 561186
0.34941491 -1.3895338 4.1612387 4294952704 565282
0.32034236 -1.3360621 4.0017095 4294950656 569378
0.30447191 -1.3349923 3.9990776 4294950656 573474
0.26989686 -1.2473611 3.7370906 4294947328 577570
0.25792688 -1.2601571 3.7759235 4294947840 581666
0.24175435 -1.2527272 3.7541251 4294947584 585762
0.22621199 -1.2478145 3.7398379 4294947328 589858
0.21260509 -1.2536368 3.7576964 4294947584 593954
0.20045766 -1.2695652 3.8058257 4294948352 598050
0.18405515 -1.2589372 3.7743199 4294947840 602146
0.16449842 -1.2230099 3.6669261 4294946560 606242
0.1342887 -1.0934937 3.2788594 4294941696 610338
0.11925988 -1.0733389 3.2186558 4294940928 614434
0.064422257 -1.0014732 3.0037959 4294938368 630818
0.050081261 -0.95154399 2.8541439 4294936576 634914
0.03649354 -0.8914851 2.6740763 4294934272 639010
0.025216643 -0.86240923 2.5869176 4294933248 643106
0.014664144 -0.8358562 2.5073049 4294932224 647202
-0.092703037 -0.83432734 2.5019243 4294932224 692258
-0.10299738 -0.8386929 2.5148349 4294932480 696354
-0.12241077 -0.83728963 2.5102117 4294932480 704546
-0.14466685 -0.91622341 2.7465992 4294935296 708642
-0.16287039 -0.9603737 2.8786588 4294936832 712738
-0.18966521 -1.0462178 3.1356301 4294940160 716834
-0.20675637 -1.0713739 3.2106526 4294940928 720930
-0.21563956 -1.0535532 3.1568577 4294940416 725026
-0.22970963 -1.061631 3.1806436 4294940672 729122
-0.23647535 -1.0368534 3.1059787 4294939648 733218
-0.25008056 -1.0430188 3.1240008 4294939904 737314
-0.26732108 -1.0630676 3.1835697 4294940672 741410
-0.28120562 -1.0685813 3.1995754 4294940928 745506
-0.30632094 -1.1144868 3.3364723 4294942720 749602
-0.33847174 -1.1811973 3.5355706 4294945024 753698
-0.34883639 -1.1696279 3.5003047 4294944768 757794
-0.36851126 -1.1889702 3.5575147 4294945280 761890
-0.38619828 -1.2007256 3.5919852 4294945792 765986
-0.3976382 -1.1929146 3.5679023 4294945536 770082
-0.41128695 -1.1920351 3.5645275 4294945536 774178
-0.43120921 -1.2087996 3.6138742 4294946048 778274
-0.45778754 -1.2425662 3.7139883 4294947328 782370
-0.45376992 -1.193764 3.5672877 4294945536 786466
-0.46811527 -1.194742 3.5693569 4294945536 790562
-0.48171639 -1.1938189 3.5657294 4294945536 794658
-0.49947608 -1.2029635 3.5921364 4294946048 798754
-0.4999769 -1.1711788 3.4963129 4294944768 802850
-0.57674861 -1.3149868 3.9245651 4294950144 806946
-0.6064167 -1.3467176 4.0181551 4294951424 811042
-0.62606078 -1.3551441 4.0421667 4294951680 815138
-0.64619374 -1.3641868 4.067966 4294951936 819234
-0.62015378 -1.2776662 3.8088322 4294948864 823330
-0.66770709 -1.3432696 4.0031762 4294951168 827426
-0.69886881 -1.3736387 4.092411 4294952448 831522
-0.72026509 -1.38388 4.1216192 4294952704 835618
-0.74389791 -1.3978741 4.1619434 4294953216 839714
-0.74873376 -1.376704 4.0975423 4294952448 843810
-0.76562464 -1.3781244 4.1003709 4294952704 847906
-0.77435696 -1.3651035 4.0602307 4294952192 852002
-0.78387463 -1.3539653 4.0256777 4294951680 856098
-0.81460315 -1.3791796 4.0991569 4294952704 860194
-0.81835526 -1.3586286 4.0365815 4294951936 864290
-0.87123609 -1.4188702 4.2139907 4294954240 868386
-0.9160912 -1.4640336 4.3464599 4294955776 872482
-0.8865816 -1.3908757 4.127646 4294953216 876578
-0.93538547 -1.4409993 4.2746959 4294955008 880674
-0.9510293 -1.4391682 4.2675457 4294955008 884770
-0.95611727 -1.4217049 4.2140236 4294954496 888866
-0.96251178 -1.4067479 4.1679301 4294953984 892962
-0.99332654 -1.4273852 4.227282 4294954752 897058
-1.0073776 -1.4236494 4.214396 4294954496 901154
-1.0365995 -1.4411261 4.2642441 4294955264 905250
-1.0803444 -1.4779112 4.3711276 4294956544 909346
-1.1100974 -1.494698 4.4187765 4294957312 913442
-1.1350551 -1.5046078 4.4460149 4294957568 917538
-1.1253991 -1.4690324 4.3388371 4294956288 921634
-1.1638275 -1.4963497 4.4174304 4294957312 925730
-1.1812532 -1.496254 4.4150138 4294957312 929826
-1.1902002 -1.4855783 4.3813481 4294957056 933922
-1.1594766 -1.4264065 4.2047472 4294954752 938018
-1.2139951 -1.4722919 4.337821 4294956544 942114
-1.2243599 -1.4640948 4.3114491 4294956288 946210
-1.2540027 -1.4788584 4.3526635 4294956800 950306
-1.2764999 -1.4849081 4.3681765 4294957056 954402
-1.2915637 -1.4822644 4.3580632 4294957056 958498
-1.2961594 -1.4678361 4.3133044 4294956544 962594
-1.3514043 -1.510393 4.4359384 4294958336 966690
-1.3627065 -1.503373 4.4128618 4294958080 970786
-1.3710005 -1.4932554 4.3806934 4294957568 974882
-1.3664047 -1.4695295 4.3086462 4294956800 978978
-1.4049137 -1.4921755 4.3725133 4294957568 983074
-1.4527476 -1.5240481 4.4632978 4294958848 987170
-1.3261617 -1.3743858 4.0226321 4294953216 991266
-1.4812199 -1.5166982 4.4364967 4294958592 995362
-1.4133618 -1.4300879 4.1806192 4294955520 999458
-1.3300126 -1.3300126 3.8856945 4294951680 1003554
-1.5883369 -1.5699747 4.5839028 4294960896 1007650
-1.3392904 -1.308678 3.8185956 4294950912 1011746
-1.6898712 -1.6325873 4.7607222 4294963200 1015842
-1.4531006 -1.3881575 4.0453439 4294953984 1019938
-1.5730655 -1.4861559 4.3281322 4294957824 1024034
-1.6196309 -1.5134256 4.4046679 4294958848 1028130
-1.4922467 -1.37932 4.0116935 4294953728 1032226
-1.6997752 -1.5543399 4.517724 4294960384 1036322
-1.5346605 -1.3885024 4.0329847 4294954240 1040418
-1.5860951 -1.4200118 4.1216731 4294955520 1044514
-1.5850282 -1.4043514 4.0734215 4294955008 1048610
-1.5626994 -1.3703672 3.9720716 4294953728 1052706
-1.6416731 -1.4250056 4.1275287 4294955776 1056802
-1.633009 -1.4032388 4.0616021 4294955008 1060898
-1.669044 -1.419933 4.1069584 4294955520 1064994
-1.6402892 -1.3817214 3.9935431 4294954240 1069090
-1.7801259 -1.4848855 4.2885771 4294958080 1073186
-1.6458529 -1.3596176 3.9238625 4294953472 1077282
-1.7378371 -1.4218668 4.1004686 4294955776 1081378
-1.7066541 -1.3831178 3.9857142 4294954496 1085474
-1.7464991 -1.402119 4.0373869 4294955264 1089570
-1.6982144 -1.3506728 3.8862774 4294953216 1093666
-1.7673365 -1.3926938 4.0040698 4294955008 1097762
-1.8086257 -1.4122145 4.057024 4294955776 1101858
-1.8096254 -1.4002079 4.0193653 4294955264 1105954
-1.7756478 -1.3615954 3.9053981 4294953984 1110050
-1.8649095 -1.4173312 4.0620198 4294956032 1114146
-1.8422869 -1.3878021 3.9741678 4294955008 1118242
-1.8853036 -1.4078031 4.0281444 4294955776 1122338
-1.8268888 -1.3523722 3.8663669 4294953728 1126434
-1.8970215 -1.3922347 3.9770131 4294955264 1130530
-1.7363012 -1.2634362 3.6060777 4294950400 1134626
-1.7671173 -1.2750087 3.6360378 4294950912 1138722
-1.8158115 -1.299179 3.7017958 4294951680 1142818
-1.707561 -1.211589 3.4492772 4294948352 1146914
-1.7168441 -1.2081496 3.4365025 4294948352 1151010
-1.7475127 -1.2196925 3.4663107 4294948864 1155106
-1.6494925 -1.1419563 3.242542 4294945792 1159202
-1.6082344 -1.1044501 3.1332495 4294944512 1163298
-1.6723677 -1.1393422 3.2293663 4294945792 1167394
-1.5949191 -1.0779887 3.0527127 4294943488 1171490
-1.8054512 -1.2107143 3.4254584 4294948608 1175586
-1.6369231 -1.0891589 3.0787375 4294944000 1179682
-1.6283076 -1.0750602 3.0360732 4294943488 1183778
-1.6775231 -1.0990669 3.1010027 4294944512 1187874
-2.0098355 -1.3067751 3.6836023 4294952704 1191970
-2.5471089 -1.6436061 4.6287022 4294965760 1196066
-2.2265663 -1.4260031 4.0120997 4294957312 1200162
-2.4155645 -1.5355448 4.3161545 4294961664 1204258
-2.2499969 -1.4197397 3.9868162 4294957312 1208354
-2.2710378 -1.4225183 3.9907491 4294957312 1212450
-2.2093978 -1.3738438 3.8504186 4294955520 1216546
-3.2318339 -1.9951034 5.5861287 4289920844 1220642
-2.8042645 -1.7187428 4.8075614 4294049549 1224738
-3.5995073 -2.1904476 6.1208863 4286906234 1228834
-3.7345879 -2.2565885 6.2993832 4285857674 1232930
-1.9891807 -1.1935084 3.3283548 4294948608 1237026
-3.611732 -2.1370456 5.9474592 4287561584 1245218
-3.9421682 -2.2545512 6.2417359 4285595534 1265698
-4.5411534 -2.5294373 6.9726381 4281270224 1282082
2.5095301 -1.3295002 3.6857967 4294955520 35
2.4353998 -1.2983677 3.6035523 4294954240 4131
2.449389 -1.3141167 3.6513712 4294954752 8227
2.4067712 -1.2995027 3.6148076 4294954240 12323
2.4161904 -1.3129781 3.6563284 4294954752 16419
2.4631302 -1.3471489 3.7556491 4294956032 20515
2.4132581 -1.3284711 3.7076287 4294955264 24611
2.3647711 -1.3103158 3.6609468 4294954496 28707
2.399307 -1.3382273 3.7429831 4294955520 32803
2.3716149 -1.3315711 3.728349 4294955264 36899
2.3215349 -1.3121718 3.677979 4294954240 40995
2.2931798 -1.3048732 3.6613934 4294953984 45091
2.3326499 -1.3363317 3.7536182 4294955264 49187
2.3373113 -1.348142 3.7907648 4294955520 53283
2.3037751 -1.3379313 3.7659433 4294955264 57379
2.2892749 -1.338711 3.7720544 4294955008 61475
2.2688322 -1.3360022 3.7682765 4294955008 65571
2.2376308 -1.3268758 3.7463489 4294954496 69667
2.2553594 -1.34684 3.8065734 4294955264 73763
2.2329335 -1.3429387 3.7993386 4294955008 77859
2.2134423 -1.3407589 3.7969809 4294955008 81955
2.16048 -1.3181268 3.7365808 4294953984 86051
2.1460218 -1.318828 3.7422459 4294953984 90147
2.1457105 -1.3282969 3.7728074 4294954240 94243
2.1329875 -1.3301656 3.7817595 4294954240 98339
2.0996594 -1.3191168 3.7539794 4294953728 102435
2.0990098 -1.3285867 3.7845402 4294954240 106531
2.0797234 -1.3263141 3.7816486 4294953984 110627
2.0760198 -1.3340203 3.8072169 4294954240 114723
2.0512438 -1.3282 3.7941339 4294953984 118819
2.0401042 -1.3311876 3.8062153 4294953984 122915
2.0513122 -1.3489174 3.8604617 4294954752 127011
1.9944526 -1.3218137 3.786345 4294953728 131107
1.9717444 -1.3170941 3.7762637 4294953472 135203
2.0123603 -1.3549358 3.8882444 4294954752 139299
1.9762946 -1.3413405 3.8526814 4294954240 143395
1.94743 -1.3324521 3.8305469 4294953728 147491
1.971171 -1.3597057 3.9123209 4294954752 151587
1.9593284 -1.3626605 3.9242628 4294955008 155683
1.9050744 -1.3359234 3.8505845 4294953728 159779
1.9219764 -1.3590544 3.9206257 4294954752 163875
1.8899853 -1.3477111 3.8912199 4294954240 167971
1.8731332 -1.3470618 3.8926113 4294954240 172067
1.8422999 -1.3362604 3.8646557 4294953728 176163
1.8573424 -1.3588349 3.9332044 4294954496 180259
1.8500491 -1.3653201 3.95523 4294954752 184355
1.8770992 -1.3974879 4.0517364 4294956032 188451
1.8111252 -1.3603562 3.9472594 4294954496 192547
1.783033 -1.3512671 3.9240489 4294953984 196643
1.7535621 -1.3409593 3.8972156 4294953728 200739
1.7429422 -1.3450102 3.912061 4294953728 204835
1.7129607 -1.334057 3.8832536 4294953216 208931
1.6809218 -1.3212827 3.8490417 4294952704 213027
1.6847236 -1.3367056 3.8969636 4294953216 217123
1.6679127 -1.3359112 3.897619 4294953216 221219
1.6503707 -1.3345102 3.8964508 4294953216 225315
1.6306242 -1.3312825 3.889946 4294952960 229411
1.6401714 -1.3521413 3.9538174 4294953728 233507
1.6029072 -1.33444 3.9049056 4294952960 237603
1.5796441 -1.3281585 3.8893609 4294952704 241699
1.5373203 -1.3055633 3.8259346 4294951936 245795
1.5870324 -1.3614644 3.9925921 4294953984 249891
1.5427184 -1.3370227 3.923687 4294952960 253987
1.525885 -1.3361377 3.9238119 4294952960 258083
1.4591041 -1.2910397 3.7940028 4294951168 262179
1.4868107 -1.3294762 3.9096301 4294952448 266275
1.4720705 -1.3303739 3.9148991 4294952448 270371
1.4632653 -1.3367126 3.9362042 4294952704 274467
1.4405107 -1.3303077 3.9199362 4294952448 278563
1.4556226 -1.3591172 4.0074415 4294953472 282659
1.4655677 -1.3836924 4.0825624 4294954496 286755
1.4526644 -1.3870072 4.0949602 4294954496 290851
1.4453471 -1.3957922 4.1235065 4294954752 294947
1.3885716 -1.3564659 4.0098495 4294953216 299043
1.3493198 -1.3335383 3.9445076 4294952448 303139
1.3611755 -1.3611755 4.0287251 4294953472 307235
1.3561213 -1.3723623 4.0643029 4294953728 311331
1.3073033 -1.3389955 3.9678481 4294952448 315427
1.2998716 -1.3477197 3.9960675 4294952960 319523
1.2538069 -1.3161079 3.9046226 4294951680 323619
1.2700104 -1.3498852 4.0071321 4294952960 327715
1.2712259 -1.3683896 4.0643849 4294953472 331811
1.215305 -1.3250744 3.9379504 4294951936 335907
1.1947421 -1.3196825 3.9240937 4294951680 340003
1.1923584 -1.3344939 3.970319 4294952192 344099
1.2274731 -1.3922347 4.1443543 4294954240 348195
1.184425 -1.3616859 4.0555725 4294953216 352291
1.162073 -1.3544161 4.0360518 4294952960 356387
1.1455941 -1.3538839 4.0365696 4294952704 360483
1.1234833 -1.3465863 4.0168619 4294952448 364579
1.088888 -1.3238999 3.9511847 4294951680 368675
1.0946901 -1.3503842 4.0322447 4294952704 372771
1.0679296 -1.3368896 3.9939051 4294951936 376867
1.0676345 -1.3566183 4.0547986 4294952704 380963
1.0453898 -1.3486326 4.0328641 4294952448 385059
1.0364944 -1.357888 4.0624461 4294952704 389155
1.0301617 -1.3708451 4.1030912 4294953216 393251
1.0052686 -1.3591231 4.0698733 4294952704 397347
0.99186838 -1.362811 4.0827479 4294952960 401443
0.96600252 -1.3492101 4.0437746 4294952448 405539
0.97479689 -1.3843753 4.1509714 4294953728 409635
0.96309459 -1.3911366 4.1730323 4294953984 413731
0.93230367 -1.3700811 4.1115904 4294952960 417827
0.93383217 -1.3966162 4.1929355 4294953984 421923
0.90547985 -1.3786135 4.1405773 4294953472 426019
0.87035513 -1.3494498 4.0546007 4294952192 430115
0.85040534 -1.3431635 4.0372815 4294951936 434211
0.84521711 -1.3603971 4.0906448 4294952704 438307
0.85208148 -1.3980753 4.2055335 4294953984 442403
0.83769339 -1.401685 4.217947 4294953984 446499
0.80142438 -1.3680881 4.1183276 4294952960 450595
0.81220967 -1.415087 4.2613158 4294954496 454691
0.7828303 -1.3926139 4.195107 4294953728 458787
0.76421678 -1.388738 4.184854 4294953472 462883
0.74903262 -1.3910606 4.1932402 4294953728 466979
0.72724694 -1.3809521 4.1641197 4294953216 471075
0.72200096 -1.4025075 4.230474 4294953984 475171
0.69718087 -1.3861597 4.182466 4294953472 479267
0.66785407 -1.3598474 4.1043162 4294952448 483363
0.64450336 -1.3447045 4.0598044 4294951936 487459
0.6066708 -1.2978148 3.9193821 4294950144 491555
0.52372539 -1.1494752 3.472383 4294944512 495651
0.47325158 -1.0663936 3.2222922 4294941440 499747
0.44462046 -1.0293268 3.1111169 4294939904 503843
0.42810443 -1.0190091 3.0807266 4294939648 507939
0.4901475 -1.2005062 3.630367 4294946304 512035
0.52100629 -1.31418 3.9751031 4294950656 516131
0.51875496 -1.3487629 4.0806828 4294951936 520227
0.48734194 -1.307314 3.9561918 4294950400 524323
0.47175139 -1.3069834 3.9560704 4294950400 528419
0.42786512 -1.2255797 3.7104781 4294947328 532515
0.38589039 -1.1441312 3.4646232 4294944256 536611
0.41972655 -1.2897052 3.9062405 4294949632 540707
0.42097807 -1.342364 4.0665274 4294951680 544803
0.41496041 -1.3750648 4.1663718 4294952704 548899
0.39423522 -1.3597093 4.1205845 4294952192 552995
0.37629998 -1.3530787 4.1011953 4294951936 557091
0.36367109 -1.365787 4.1404099 4294952448 561187
0.34645015 -1.3616296 4.128469 4294952192 565283
0.32341585 -1.3331044 4.0425978 4294951168 569379
0.30811596 -1.3351691 4.0494461 4294951168 573475
0.29454339 -1.3453468 4.0808744 4294951680 577571
0.27270591 -1.3167799 3.99474 4294950656 581667
0.24068172 -1.2325821 3.7397645 4294947328 585763
0.22910166 -1.2489736 3.7899323 4294948096 589859
0.21927781 -1.2778604 3.8780036 4294949120 593955
0.20197852 -1.2642359 3.8370481 4294948608 598051
0.18527736 -1.2524749 3.8017137 4294948096 602147
0.16170587 -1.1881865 3.6068914 4294945792 606243
0.12730043 -1.0244653 3.1101439 4294939648 610339
0.047014013 -0.8828187 2.6809978 4294934272 634915
0.032059714 -0.7740131 2.3506384 4294930432 639011
0.012374662 -0.69710594 2.1171517 4294927616 647203
-0.0043210769 -0.73026204 2.2178648 4294928640 655395
-0.10368167 -0.83439058 2.5331016 4294932480 696355
-0.11669539 -0.85745746 2.602921 4294933504 700451
-0.128774 -0.87051225 2.6423192 4294934016 704547
-0.14974873 -0.93731606 2.8448224 4294936320 708643
-0.16393551 -0.95534831 2.8992558 4294937088 712739
-0.18634214 -1.0158652 3.0825794 4294939392 716835
-0.2038321 -1.0438675 3.1671872 4294940416 720931
-0.21007736 -1.0143735 3.0773239 4294939392 725027
-0.22601947 -1.0323592 3.1314812 4294939904 729123
-0.2452675 -1.0628258 3.2234538 4294941184 733219
-0.25053555 -1.0326953 3.1316164 4294939904 737315
-0.27415717 -1.0775014 3.2669909 4294941696 741411
-0.29135251 -1.0941905 3.3170598 4294942208 745507
-0.30130041 -1.0833993 3.2837944 4294941952 749603
-0.33849758 -1.1674713 3.5380094 4294945024 753699
-0.35130867 -1.1641405 3.5272822 4294945024 757795
-0.38204029 -1.2182039 3.6903996 4294946816 761891
-0.37831217 -1.1624501 3.5208123 4294944768 765987
-0.38252479 -1.1341524 3.4344056 4294943744 770083
-0.40609634 -1.1632252 3.5216975 4294945024 774179
-0.42292237 -1.171703 3.5465941 4294945280 778275
-0.46433985 -1.2456101 3.7694633 4294948096 782371
-0.47154093 -1.2260064 3.7092834 4294947328 786467
-0.45876712 -1.1571887 3.5002389 4294944768 790563
-0.48684171 -1.1924094 3.6058822 4294946048 794659
-0.5285579 -1.2581167 3.8036101 4294948608 798755
-0.54142326 -1.2534319 3.7884691 4294948352 802851
-0.57737523 -1.3010188 3.9312527 4294950144 806947
-0.59686267 -1.3099973 3.9572949 4294950400 811043
-0.59852952 -1.2803986 3.8667855 4294949376 815139
-0.60397041 -1.2601358 3.8044825 4294948608 819235
-0.61778408 -1.2578977 3.7966096 4294948608 823331
-0.6606105 -1.3134491 3.9630764 4294950656 827427
-0.68010408 -1.3211217 3.9849849 4294950912 831523
-0.71481818 -1.3573513 4.0929542 4294952448 835619
-0.72863942 -1.3531874 4.0790744 4294952192 839715
-0.77890342 -1.4154266 4.2652783 4294954496 843811
-0.79015464 -1.4056435 4.2343574 4294954240 847907
-0.76806593 -1.3381767 4.0297127 4294951680 852003
-0.80868858 -1.3804886 4.1556568 4294953216 856099
-0.83991587 -1.4054037 4.2291379 4294954240 860195
-0.8660531 -1.4209998 4.2744918 4294954752 864291
-0.88677573 -1.4272866 4.2917786 4294955008 868387
-0.90018708 -1.4217907 4.2736197 4294955008 872483
-0.91705614 -1.4218577 4.2721605 4294955008 876579
-0.96480227 -1.4689332 4.4118471 4294956800 880675
-0.96815056 -1.447942 4.3470263 4294956032 884771
-0.98067492 -1.4411658 4.3249145 4294955776 888867
-1.0075814 -1.4553952 4.3657904 4294956288 892963
-1.0252436 -1.4560183 4.3657889 4294956288 897059
-1.0362813 -1.4473681 4.3379679 4294956032 901155
-1.0421691 -1.4319235 4.2897973 4294955520 905251
-1.0732445 -1.4510266 4.345077 4294956288 909347
-1.1223596 -1.4935337 4.4703121 4294957824 913443
-1.1249269 -1.4737414 4.409049 4294957056 917539
-1.1437457 -1.4755192 4.4122977 4294957312 921635
-1.1625999 -1.4772886 4.4154706 4294957312 925731
-1.1898382 -1.4895011 4.4498262 4294957824 929827
-1.2133584 -1.4967706 4.4693542 4294958080 933923
-1.2031618 -1.4628371 4.3658438 4294956800 938019
-1.2378054 -1.4836106 4.4256048 4294957568 942115
-1.2531641 -1.4810121 4.4155989 4294957568 946211
-1.2932111 -1.5072598 4.4915137 4294958592 950307
-1.2970241 -1.4911366 4.4411216 4294958080 954403
-1.3047816 -1.4799199 4.4053731 4294957568 958499
-1.3571804 -1.5189635 4.5191436 4294959104 962595
-1.393265 -1.5389659 4.5761361 4294959872 966691
-1.380939 -1.505669 4.4746542 4294958592 970787
-1.4133258 -1.5213507 4.5187092 4294959360 974883
-1.405785 -1.4941992 4.4355278 4294958336 978979
-1.3987793 -1.4682839 4.3560972 4294957312 983075
-1.4288867 -1.4814838 4.3926859 4294957824 987171
-1.3978937 -1.431782 4.2428026 4294956032 991267
-1.5297434 -1.5480638 4.5846491 4294960640 995363
-1.462997 -1.462997 4.33009 4294957312 999459
-1.4818782 -1.4645462 4.3320193 4294957312 1003555
-1.6366756 -1.5988333 4.7263122 4294962688 1007651
-1.4113166 -1.3629286 4.0264192 4294953728 1011747
-1.7552365 -1.6759037 4.9478898 4294965504 1015843
-1.6477578 -1.5557042 4.5900807 4294961152 1019939
-1.5902879 -1.4848545 4.3781862 4294958336 1024035
-1.6653132 -1.5379122 4.5316715 4294960384 1028131
-1.4838513 -1.3555182 3.9915807 4294953472 1032227
-1.7283161 -1.5619541 4.5963717 4294961408 1036323
-1.5809855 -1.4136854 4.1572666 4294955776 1040419
-1.7410036 -1.5404693 4.5270057 4294960640 1044515
-1.6543951 -1.4486673 4.2542758 4294957312 1048611
-1.6920025 -1.4664022 4.30337 4294957824 1052707
-1.689149 -1.4490669 4.2494931 4294957312 1056803
-1.6396897 -1.3925003 4.0807023 4294955264 1060899
-1.6772283 -1.4102069 4.1296306 4294955776 1064995
-1.7419441 -1.4501898 4.243619 4294957568 1069091
-1.6489404 -1.3593704 3.9749563 4294953984 1073187
-1.6947726 -1.383655 4.0429759 4294955008 1077283
-1.8065923 -1.4608331 4.2652831 4294958080 1081379
-1.740708 -1.3942164 4.0677285 4294955520 1085475
-1.7013779 -1.3499194 3.9354868 4294953728 1089571
-1.783999 -1.4023062 4.085072 4294955776 1093667
-1.7591634 -1.3700397 3.987994 4294954752 1097763
-1.7833222 -1.3761711 4.0026946 4294955008 1101859
-1.7825336 -1.363114 3.9616036 4294954496 1105955
-1.7838224 -1.3518654 3.9257863 4294953984 1110051
-1.7267572 -1.2969866 3.7633836 4294951936 1114147
-1.8650639 -1.3885278 4.0257583 4294955520 1118243
-1.8993838 -1.4017286 4.0607028 4294956032 1122339
-1.6934952 -1.238964 3.5862331 4294949888 1126435
-1.8899492 -1.3708215 3.9646111 4294955008 1130531
-1.8027613 -1.2964538 3.7463694 4294952192 1134627
-1.8641237 -1.3292696 3.8379743 4294953472 1138723
-1.9261794 -1.3620265 3.9291992 4294954752 1142819
-1.9423374 -1.362054 3.9259017 4294954752 1146915
-1.9465307 -1.3537601 3.8986306 4294954496 1151011
-1.8706142 -1.290342 3.7127388 4294952192 1155107
-1.837484 -1.2572259 3.6142857 4294950912 1159203
-1.7208107 -1.1679398 3.354629 4294947328 1163299
-1.7910577 -1.2059313 3.4606478 4294948864 1167395
-1.8408549 -1.2296619 3.5255857 4294949888 1171491
-1.9517049 -1.2934828 3.7051909 4294952448 1175587
-2.0297904 -1.3347648 3.8199584 4294954240 1179683
-2.0807347 -1.3576995 3.8820195 4294955008 1183779
-2.1639645 -1.4011878 4.0026307 4294956800 1187875
-1.8206927 -1.1699508 3.3389721 4294947840 1191971
-2.2906897 -1.460855 4.1652579 4294959360 1196067
-2.2000885 -1.3925655 3.9667866 4294956800 1200163
-2.3918102 -1.5026615 4.2763157 4294961152 1204259
-2.5566726 -1.5943825 4.532948 4294964736 1208355
-2.7186563 -1.6829777 4.7802191 4294377224 1212451
-2.1593423 -1.327014 3.7654741 4294954240 1216547
-2.8977146 -1.7679198 5.0116382 4293000989 1220643
-3.3184774 -2.0101171 5.6925793 4289331029 1224739
-2.881439 -1.7329651 4.9027715 4293525269 1228835
-3.7680349 -2.2501693 6.3596525 4285595534 1232931
-3.6750915 -2.1792648 6.1530147 4286644094 1237027
-3.2865248 -1.9352707 5.4585495 4290314054 1241123
-3.8958921 -2.2625628 6.3685508 4285267859 1249315
-4.226048 -2.4375498 6.8540092 4282515389 1253411
-4.489985 -2.5722287 7.2251258 4280418269 1257507
-4.1167946 -2.3114228 6.4718966 4284284834 1269795
-3.327404 -1.8558788 5.1908398 4291297079 1273891
-4.4331012 -2.4403718 6.8108315 4282187714 1282083
-4.3269615 -2.3513069 6.5478249 4283498414 1290275
-4.273572 -2.3074558 6.4186158 4284153764 1294371
-3.5894837 -1.9257866 5.3509417 4290051914 1298467
-4.6906047 -2.4849911 6.889184 4281270224 1306659
2.4171009 -1.2653788 3.5521655 4294953728 36
2.4518633 -1.2916756 3.6300731 4294954496 4132
2.4753897 -1.3123494 3.6923449 4294955520 8228
2.3922508 -1.2763766 3.5951369 4294953984 12324
2.4250011 -1.302171 3.6718717 4294954752 16420
2.445657 -1.3217628 3.731235 4294955520 20516
2.3854067 -1.2975991 3.6670206 4294954496 24612
2.3921561 -1.3098035 3.705564 4294955008 28708
2.3665986 -1.3043629 3.6941545 4294954752 32804
2.3596368 -1.3091673 3.7117538 4294954752 36900
2.2871127 -1.2774174 3.6256104 4294953472 40996
2.3331783 -1.3119217 3.727474 4294954752 45092
2.295604 -1.2995454 3.696223 4294954240 49188
2.322613 -1.3238101 3.7691693 4294955264 53284
2.2991335 -1.319434 3.7606223 4294955008 57380
2.298578 -1.3282441 3.7896485 4294955264 61476
2.2415376 -1.3043092 3.7251587 4294954240 65572
2.2104809 -1.2952642 3.7031167 4294953984 69668
2.1678956 -1.2792882 3.6611335 4294953216 73764
2.2022426 -1.3088061 3.749378 4294954240 77860
2.1463122 -1.2847102 3.6840293 4294953216 81956
2.180928 -1.3148556 3.7741909 4294954496 86052
2.1215875 -1.2883823 3.7018626 4294953472 90148
2.1573946 -1.319725 3.7956152 4294954496 94244
2.0891299 -1.2873974 3.7062337 4294953216 98340
2.1223879 -1.3176163 3.796891 4294954240 102436
2.1475866 -1.3432471 3.874429 4294955264 106532
2.0809565 -1.3113953 3.7861705 4294953984 110628
2.0552819 -1.3050649 3.7714379 4294953728 114724
2.0342698 -1.301621 3.7650044 4294953472 118820
1.9825951 -1.2783527 3.7011421 4294952448 122916
2.0256226 -1.3162606 3.8143854 4294953984 127012
2.005439 -1.3133659 3.8094993 4294953984 131108
1.9631884 -1.2958596 3.7621281 4294953216 135204
1.9968634 -1.3285904 3.8606229 4294954240 139300
1.9713649 -1.3221604 3.8453834 4294953984 143396
1.9304069 -1.3051739 3.7993288 4294953472 147492
1.9164442 -1.3063109 3.8060009 4294953472 151588
1.9058639 -1.3097912 3.8194704 4294953472 155684
1.9341769 -1.3402803 3.9117558 4294954496 159780
1.8877971 -1.3190883 3.8532257 4294953728 163876
1.8735898 -1.3202088 3.8597708 4294953728 167972
1.8725897 -1.330734 3.8938408 4294953984 172068
1.8540884 -1.3288959 3.8917236 4294953984 176164
1.860088 -1.344739 3.9413793 4294954496 180260
1.8131176 -1.3222299 3.8786175 4294953728 184356
1.8035623 -1.3268498 3.8953412 4294953728 188452
1.8074273 -1.3415127 3.9415822 4294954240 192548
1.805428 -1.352047 3.9757314 4294954752 196644
1.743649 -1.3175989 3.877502 4294953216 200740
1.740873 -1.327515 3.909786 4294953728 204836
1.7278574 -1.3297336 3.9193804 4294953728 208932
1.7117252 -1.3295727 3.9219375 4294953728 213028
1.6486149 -1.292576 3.815747 4294952192 217124
1.6734216 -1.3244616 3.9128392 4294953472 221220
1.6684756 -1.3331839 3.9415858 4294953728 225316
1.6035656 -1.2936978 3.8277059 4294952192 229412
1.5695032 -1.2785709 3.7857318 4294951424 233508
1.5966179 -1.3134738 3.8919463 4294952704 237604
1.56049 -1.2965266 3.8445153 4294952192 241700
1.5538923 -1.3040202 3.8695104 4294952448 245796
1.5294938 -1.2965759 3.8501716 4294951936 249892
1.5115389 -1.2944974 3.8466983 4294951936 253988
1.5164279 -1.3121423 3.9018583 4294952448 258084
1.4859947 -1.2992729 3.8662632 4294951936 262180
1.4687258 -1.297763 3.8643944 4294951936 266276
1.483688 -1.3250048 3.9481988 4294952960 270372
1.4621507 -1.3198874 3.9355831 4294952704 274468
1.4742645 -1.3453671 4.0142021 4294953728 278564
1.4721152 -1.3582499 4.0553131 4294953984 282660
1.4245783 -1.3290758 3.9707761 4294952960 286756
1.4350539 -1.3539774 4.0477614 4294953984 290852
1.3995498 -1.3355705 3.9952762 4294953216 294948
1.3800517 -1.3321887 3.9876504 4294952960 299044
1.3439606 -1.3125229 3.9312215 4294952192 303140
1.3375881 -1.3217586 3.9613175 4294952448 307236
1.3690035 -1.3690035 4.1053843 4294954240 311332
1.2776735 -1.2931604 3.8802722 4294951424 315428
1.2959353 -1.3277375 3.9863861 4294952704 319524
1.2563114 -1.3031305 3.9147799 4294951680 323620
1.2419884 -1.3044784 3.9211001 4294951680 327716
1.2674387 -1.3481672 4.0547371 4294953472 331812
1.206488 -1.2998935 3.9117372 4294951424 335908
1.212659 -1.3236213 3.985364 4294952448 340004
1.2254006 -1.3552443 4.0828218 4294953472 344100
1.2022491 -1.3474872 4.0616379 4294953216 348196
1.1595051 -1.3172609 3.9726591 4294951936 352292
1.1443261 -1.3179479 3.9768305 4294951936 356388
1.140046 -1.3313824 4.0194454 4294952448 360484
1.1303136 -1.3387402 4.0437379 4294952704 364580
1.0971299 -1.3181344 3.9835155 4294951936 368676
1.0719019 -1.3066249 3.9506919 4294951424 372772
1.0931654 -1.3522861 4.0907621 4294953216 376868
1.0711826 -1.3450187 4.070756 4294952960 380964
1.0517524 -1.3407837 4.0598674 4294952704 385060
1.0093504 -1.3066784 3.9584498 4294951424 389156
1.0293868 -1.3536031 4.1025119 4294953216 393252
1.0277846 -1.3731202 4.1635571 4294953984 397348
1.0144885 -1.3773949 4.1783752 4294953984 401444
0.99223393 -1.3694468 4.1561108 4294953728 405540
0.97494656 -1.3682023 4.1541381 4294953728 409636
0.9730922 -1.3889436 4.2189021 4294954496 413732
0.93244475 -1.354072 4.1147051 4294952960 417828
0.91866928 -1.3576794 4.1273761 4294953216 421924
0.89667362 -1.3490494 4.1027994 4294952704 426020
0.87287879 -1.3373464 4.0688114 4294952448 430116
0.8728807 -1.3623465 4.1465034 4294953216 434212
0.84495354 -1.3438785 4.0918655 4294952448 438308
0.83332509 -1.3511194 4.1154547 4294952704 442404
0.83708811 -1.3840963 4.2174459 4294953984 446500
0.79790789 -1.3459659 4.1027551 4294952704 450596
0.79773581 -1.3734215 4.1879315 4294953728 454692
0.76864481 -1.3511966 4.1215868 4294952704 458788
0.76536256 -1.3743607 4.1936612 4294953728 462884
0.73777461 -1.3539381 4.1327305 4294952704 466980
0.72997367 -1.3697259 4.1822853 4294953472 471076
0.70899522 -1.3609447 4.1567917 4294952960 475172
0.68728203 -1.3503071 4.1255713 4294952704 479268
0.67680997 -1.3617743 4.1618819 4294952960 483364
0.6425035 -1.3246677 4.0496821 4294951680 487460
0.63321954 -1.338578 4.0933909 4294952192 491556
0.56942546 -1.2349877 3.7776692 4294948096 495652
0.49702811 -1.1067159 3.3862298 4294943488 499748
0.46533632 -1.0645366 3.2580523 4294941696 503844
0.464221 -1.0919001 3.3426728 4294942720 507940
0.49196887 -1.1907072 3.6460762 4294946560 512036
0.5153898 -1.2846283 3.934634 4294950144 516132
0.49580735 -1.2738435 3.9025278 4294949632 520228
0.48391581 -1.282761 3.9307656 4294949888 524324
0.46055153 -1.2608541 3.8645077 4294949120 528420
0.38041955 -1.0767808 3.3010411 4294942208 532516
0.40380293 -1.1830717 3.6276512 4294946048 536612
0.41977707 -1.2745959 3.9090769 4294949632 540708
0.40654895 -1.2810128 3.9295208 4294949888 544804
0.38638052 -1.2652068 3.8817732 4294949120 548900
0.37889966 -1.2913519 3.9627099 4294950144 552996
0.36436534 -1.2946599 3.9735525 4294950400 557092
0.35157961 -1.3047509 4.0051899 4294950656 561188
0.33664298 -1.3074274 4.0140414 4294950656 565284
0.33073688 -1.3471477 4.1366138 4294952192 569380
0.31710094 -1.3578424 4.1700501 4294952704 573476
0.29417408 -1.3277587 4.0782251 4294951424 577572
0.28012103 -1.3365775 4.1058521 4294951936 581668
0.25791943 -1.3052286 4.0100474 4294950656 585764
0.24093917 -1.2979627 3.9881878 4294950400 589860
0.22606282 -1.30181 4.0004444 4294950400 593956
0.20799528 -1.2864892 3.9537642 4294949888 598052
0.18881239 -1.2612667 3.8766115 4294948864 602148
0.16784795 -1.218722 3.7461705 4294947328 606244
0.12100248 -0.96225786 2.9580715 4294937856 610340
0.044309579 -0.82218891 2.5283043 4294932480 634916
0.030886678 -0.7368679 2.266001 4294929152 639012
0.020377383 -0.68060458 2.0930274 4294927104 643108
0.012726556 -0.70844495 2.1786749 4294928128 647204
0.0044347909 -0.74061006 2.2776089 4294929408 651300
-0.0043496131 -0.72638541 2.2338636 4294928896 655396
-0.094081588 -0.8269276 2.5422361 4294932736 692260
-0.10452158 -0.83119541 2.5551732 4294932736 696356
-0.11914948 -0.86512882 2.6592774 4294934016 700452
-0.12801859 -0.85516417 2.6284206 4294933760 704548
-0.14634115 -0.90514702 2.7817862 4294935552 708644
-0.15995567 -0.92112404 2.8306017 4294936320 712740
-0.18198048 -0.98034644 3.0122638 4294938368 716836
-0.19736178 -0.99877018 3.0685167 4294939136 720932
-0.21408835 -1.0215073 3.1379831 4294939904 725028
-0.23012501 -1.0386723 3.1902933 4294940672 729124
-0.24786808 -1.0613838 3.2596004 4294941440 733220
-0.26023829 -1.0599951 3.2548695 4294941440 737316
-0.28481507 -1.1061422 3.3960593 4294943232 741412
-0.28637061 -1.0627532 3.2623301 4294941696 745508
-0.30478141 -1.0829467 3.3237653 4294942464 749604
-0.32584465 -1.1105318 3.407836 4294943488 753700
-0.35641977 -1.1671001 3.5807724 4294945536 757796
-0.3552531 -1.1193825 3.433718 4294943744 761892
-0.36452454 -1.106829 3.3945503 4294943232 765988
-0.38443893 -1.1263386 3.4536903 4294944000 770084
-0.41679522 -1.1797423 3.6166861 4294946048 774180
-0.43600979 -1.1936661 3.658577 4294946560 778276
-0.47554639 -1.2605753 3.8627822 4294949120 782372
-0.48141876 -1.2368759 3.7892742 4294948096 786468
-0.47980306 -1.195927 3.6629546 4294946560 790564
-0.48815221 -1.1814698 3.6177902 4294946048 794660
-0.52835077 -1.2427405 3.8044462 4294948352 798756
-0.53017938 -1.2128761 3.7120509 4294947328 802852
-0.57938254 -1.2900918 3.9473064 4294950400 806948
-0.57311291 -1.2429851 3.8021324 4294948608 811044
-0.58637905 -1.2395607 3.7905948 4294948352 815140
-0.6061213 -1.2496575 3.8203661 4294948864 819236
-0.59432805 -1.1958166 3.6546788 4294946816 823332
-0.62723285 -1.2323281 3.7651119 4294948096 827428
-0.67379344 -1.2933736 3.9504061 4294950400 831524
-0.70608306 -1.3248974 4.0454073 4294951680 835620
-0.7417888 -1.3613048 4.1552162 4294953216 839716
-0.77698225 -1.3952262 4.257329 4294954496 843812
-0.79726177 -1.4015024 4.2750354 4294954752 847908
-0.79452991 -1.367902 4.1711016 4294953472 852004
-0.83861196 -1.4146283 4.3120508 4294955264 856100
-0.8589558 -1.4202538 4.3276205 4294955520 860196
-0.87942153 -1.4258583 4.3431063 4294955520 864292
-0.87999147 -1.3996055 4.2615442 4294954752 868388
-0.92818344 -1.4486601 4.4092116 4294956544 872484
-0.93438572 -1.4315817 4.3555183 4294956032 876580
-0.95562518 -1.4377424 4.3725367 4294956288 880676
-0.96872962 -1.4316623 4.3522863 4294956032 884772
-0.98168695 -1.4255801 4.3320017 4294955776 888868
-0.98379254 -1.4042168 4.2652946 4294955008 892964
-1.0323859 -1.4488105 4.398881 4294956800 897060
-1.0457486 -1.443306 4.3802648 4294956544 901156
-1.0769531 -1.4622046 4.4356484 4294957312 905252
-1.0706944 -1.4304478 4.3373857 4294956032 909348
-1.1105139 -1.4602821 4.4258351 4294957312 913444
-1.1340778 -1.4681472 4.4476032 4294957568 917540
-1.1530341 -1.4698985 4.4508247 4294957568 921636
-1.1904453 -1.4947696 4.5239835 4294958592 925732
-1.1876031 -1.4691091 4.44416 4294957568 929828
-1.199622 -1.4623131 4.4214282 4294957312 933924
-1.2301919 -1.4780004 4.4666443 4294958080 938020
-1.2426525 -1.4717941 4.4456339 4294957824 942116
-1.2404013 -1.4485805 4.3732667 4294957056 946212
-1.2829205 -1.4775704 4.4584818 4294958080 950308
-1.3036757 -1.4810466 4.4666119 4294958336 954404
-1.290964 -1.4469193 4.3613491 4294957056 958500
-1.3327909 -1.4740138 4.4406281 4294958080 962596
-1.3452718 -1.4683686 4.4211922 4294957824 966692
-1.3710985 -1.4772481 4.4454455 4294958336 970788
-1.3789119 -1.4667406 4.4113574 4294957824 974884
-1.4238973 -1.4955399 4.4954071 4294959104 978980
-1.3978758 -1.4499706 4.3559074 4294957312 983076
-1.4262067 -1.4612057 4.3871098 4294957824 987172
-1.3724926 -1.3891289 4.1682363 4294955008 991268
-1.4190706 -1.4190706 4.2555261 4294956288 995364
-1.4236085 -1.4067611 4.2160707 4294955776 999460
-1.2927562 -1.2625164 3.7814436 4294950144 1003556
-1.6357902 -1.5790576 4.7266049 4294962432 1007652
-1.365499 -1.3030763 3.898072 4294951936 1011748
-1.6498499 -1.5566381 4.6536226 4294961664 1015844
-1.5514795 -1.4474697 4.324492 4294957568 1019940
-1.4695113 -1.3558475 4.04814 4294953984 1024036
-1.7498465 -1.5968544 4.7645707 4294963456 1028132
-1.4262697 -1.2874975 3.8390043 4294951424 1032228
-1.6575289 -1.480253 4.4108014 4294958848 1036324
-1.5100793 -1.3343029 3.9732003 4294953216 1040420
-1.5708891 -1.3734999 4.0871415 4294954752 1044516
-1.5807214 -1.3677745 4.0672894 4294954752 1048612
-1.5883199 -1.3602535 4.0420976 4294954496 1052708
-1.5929143 -1.3503386 4.009819 4294953984 1056804
-1.5908812 -1.3350612 3.9616206 4294953472 1060900
-1.6796718 -1.3955481 4.1381383 4294956032 1064996
-1.7176232 -1.4130201 4.1869111 4294956544 1069092
-1.6967306 -1.3822147 4.0926113 4294955520 1073188
-1.7319393 -1.3972651 4.1341338 4294956032 1077284
-1.6922951 -1.3522166 3.9978564 4294954496 1081380
-1.6749234 -1.3256503 3.9163508 4294953472 1085476
-1.7129991 -1.3430556 3.9647653 4294953984 1089572
-1.7820126 -1.3841679 4.0829811 4294955776 1093668
-1.7509725 -1.3475226 3.9718137 4294954240 1097764
-1.759521 -1.3417352 3.9516671 4294954240 1101860
-1.656682 -1.2518818 3.6841061 4294950656 1105956
-1.7604009 -1.3183272 3.8765771 4294953472 1110052
-1.6871711 -1.2522559 3.6793311 4294950912 1114148
-1.8412954 -1.3546094 3.9768372 4294954752 1118244
-1.7718461 -1.2921323 3.7903295 4294952448 1122340
-1.7703667 -1.2798754 3.7512667 4294951936 1126436
-1.9321812 -1.3848681 4.0556402 4294956288 1130532
-1.8560218 -1.3189602 3.8593895 4294953728 1134628
-1.8844415 -1.3278553 3.8821263 4294953984 1138724
-1.8827507 -1.3155622 3.8429253 4294953472 1142820
-1.8519797 -1.2833221 3.7455168 4294952448 1146916
-1.7965915 -1.2346946 3.6004817 4294950400 1151012
-1.571596 -1.0712512 3.1211426 4294944000 1155108
-1.7632234 -1.1921389 3.4702866 4294948864 1159204
-1.6642525 -1.1161854 3.2463238 4294945792 1163300
-1.7578548 -1.1695688 3.3985374 4294948096 1167396
-1.6419636 -1.0838257 3.1465535 4294944768 1171492
-2.0268257 -1.3273721 3.8501251 4294954496 1175588
-1.8703921 -1.2153909 3.5220759 4294949888 1179684
-2.0033741 -1.2917509 3.7399328 4294953216 1183780
-1.9424026 -1.2428399 3.5949774 4294951168 1187876
-1.900529 -1.2067997 3.4874668 4294949888 1191972
-1.8394457 -1.1591979 3.3467567 4294947840 1196068
-1.7838562 -1.1157452 3.2182286 4294946304 1200164
-2.0289936 -1.2596354 3.629811 4294951936 1204260
-2.1286094 -1.3117262 3.776273 4294954240 1208356
-2.53864 -1.5529411 4.4663596 4294963968 1212452
-2.063514 -1.2531158 3.6005328 4294951936 1216548
-2.6474829 -1.5961359 4.581584 4294965760 1220644
-2.5184104 -1.5074357 4.3227158 4294962176 1224740
-3.616411 -2.149255 6.1570387 4286775164 1228836
-3.1701143 -1.8707035 5.3536768 4291034939 1232932
-2.9998331 -1.757797 5.0254822 4292804384 1237028
-3.4781117 -2.023849 5.7801924 4288610144 1241124
-3.084476 -1.7823789 5.0853529 4292345639 1245220
-3.14663 -1.8057979 5.1468458 4291952429 1249316
-3.5590613 -2.0285435 5.7756953 4288479074 1253412
-3.3490183 -1.883118 5.3503752 4290641729 1261604
-4.3649936 -2.4217739 6.866219 4282187714 1269796
-4.7264752 -2.605021 7.3778167 4279238639 1273892
-5.1550159 -2.8225825 7.9853659 4278246143 1277988
-4.0802999 -2.2052104 6.2251401 4285398929 1286180
-4.0441346 -2.1716092 6.1235199 4285923209 1290276
-4.3100886 -2.2996321 6.477314 4283826089 1294372
2.4919398 -1.2889345 3.6643019 4294955264 37
2.4425337 -1.2713504 3.6184123 4294954496 4133
2.4682758 -1.2929063 3.6839068 4294955264 8229
2.4457352 -1.2892853 3.6776791 4294955008 12325
2.4475563 -1.2985426 3.7082202 4294955264 16421
2.37661 -1.2690637 3.6280246 4294953984 20517
2.3365722 -1.2558124 3.5940862 4294953472 24613
2.3581738 -1.2757334 3.6550801 4294954240 28709
2.3162429 -1.2613205 3.6176813 4294953472 32805
2.338371 -1.2818314 3.6804829 4294954240 36901
2.3539371 -1.2989955 3.733737 4294955008 40997
2.3487771 -1.3048761 3.7546282 4294955264 45093
2.317178 -1.2960488 3.7331629 4294954752 49189
2.2676461 -1.277002 3.6821363 4294953984 53285
2.3274741 -1.3197018 3.8092356 4294955520 57381
2.2919738 -1.3085663 3.780983 4294955008 61477
2.276443 -1.3087565 3.7854211 4294955008 65573
2.209811 -1.2793642 3.7041819 4294953728 69669
2.2150612 -1.2914667 3.7429917 4294954240 73765
2.1831493 -1.2819206 3.7190778 4294953728 77861
2.2054482 -1.3042972 3.7877614 4294954752 81957
2.2215023 -1.3232775 3.8466985 4294955520 86053
2.1637943 -1.2982765 3.7777402 4294954240 90149
2.1387866 -1.2926732 3.7650962 4294953984 94245
2.1157484 -1.2881863 3.755687 4294953728 98341
2.1292462 -1.3060433 3.8114054 4294954496 102437
2.1052058 -1.30097 3.8002381 4294954240 106533
2.0701902 -1.2889863 3.7688124 4294953728 110629
2.0693221 -1.298244 3.7994418 4294953984 114725
2.0254524 -1.2804585 3.7509158 4294953216 118821
2.0090771 -1.279914 3.7527928 4294953216 122917
1.9873058 -1.2758967 3.744467 4294952960 127013
1.990571 -1.2880166 3.7834992 4294953472 131109
1.9687775 -1.2839854 3.7750635 4294953216 135205
1.9558339 -1.2857075 3.7835526 4294953216 139301
1.9594357 -1.2984213 3.8243737 4294953728 143397
1.9280746 -1.287985 3.7970021 4294953216 147493
1.9537143 -1.3157668 3.882324 4294954240 151589
1.9180996 -1.3024133 3.8462572 4294953728 155685
1.9107254 -1.3081729 3.8666344 4294953984 159781
1.8754492 -1.2947662 3.8302898 4294953472 163877
1.8746947 -1.3051672 3.8643472 4294953728 167973
1.8363947 -1.2893835 3.8208513 4294952960 172069
1.835449 -1.2997814 3.8548753 4294953472 176165
1.829353 -1.3066807 3.8785748 4294953728 180261
1.8069034 -1.3019173 3.8676195 4294953472 184357
1.812663 -1.3175744 3.9173231 4294953984 188453
1.775822 -1.3022695 3.8749709 4294953472 192549
1.7819972 -1.3185182 3.9264586 4294953984 196645
1.7446752 -1.3025855 3.8821104 4294953216 200741
1.7380159 -1.309464 3.905694 4294953472 204837
1.75741 -1.3362795 3.9887776 4294954496 208933
1.7287879 -1.3267442 3.9634039 4294953984 213029
1.704163 -1.3201262 3.9466574 4294953728 217125
1.6684003 -1.3046732 3.9034278 4294953216 221221
1.6553111 -1.3068246 3.9128225 4294953216 225317
1.5978761 -1.2736694 3.8163857 4294951936 229413
1.5982293 -1.2863797 3.8573372 4294952448 233509
1.5990145 -1.2996916 3.9001122 4294952704 237605
1.5334008 -1.2587618 3.7800214 4294951168 241701
1.5526744 -1.2873935 3.8687968 4294952192 245797
1.5275824 -1.2794472 3.8476481 4294951936 249893
1.5375772 -1.3010268 3.9153025 4294952704 253989
1.5277013 -1.3060659 3.9332187 4294952960 258085
1.4827696 -1.2809266 3.8601635 4294951936 262181
1.4763758 -1.2888995 3.8868575 4294952192 266277
1.4590471 -1.2873944 3.8849483 4294951936 270373
1.4690062 -1.3101947 3.9563837 4294952960 274469
1.458024 -1.3146118 3.9723699 4294952960 278565
1.4853649 -1.354062 4.0942554 4294954496 282661
1.44025 -1.3276048 4.0168529 4294953472 286757
1.4065655 -1.3112051 3.9697902 4294952704 290853
1.4281442 -1.3465359 4.0793352 4294954240 294949
1.4027148 -1.3378495 4.0555611 4294953728 299045
1.3978426 -1.3487955 4.0912867 4294954240 303141
1.3200719 -1.2888277 3.9117718 4294951936 307237
1.3281678 -1.3122616 3.9853156 4294952704 311333
1.2987183 -1.2987183 3.9465518 4294952192 315429
1.2630888 -1.2785869 3.8876615 4294951424 319525
1.2885323 -1.3205456 4.0175967 4294952960 323621
1.2830452 -1.3314619 4.0531507 4294953216 327717
1.231205 -1.2939415 3.9411647 4294951936 331813
1.2285632 -1.3078253 3.9857078 4294952448 335909
1.2155992 -1.3109403 3.9974236 4294952448 340005
1.2343558 -1.3487995 4.115108 4294953984 344101
1.1937591 -1.3219479 4.0353827 4294952704 348197
1.1644672 -1.3070551 3.9920552 4294952192 352293
1.1476458 -1.3059418 3.9907436 4294952192 356389
1.1375996 -1.3126149 4.0132327 4294952448 360485
1.1171257 -1.3072748 3.9989588 4294952192 364581
1.1139845 -1.3223556 4.0471244 4294952704 368677
1.0660481 -1.2839266 3.9314773 4294951168 372773
1.0490271 -1.2821442 3.9279532 4294951168 376869
1.069881 -1.3272959 4.0682383 4294952704 380965
1.055724 -1.3297288 4.077641 4294952960 385061
1.0532749 -1.347212 4.1332021 4294953472 389157
1.0276804 -1.3351754 4.0981631 4294952960 393253
1.0105839 -1.3339707 4.0963235 4294952960 397349
0.98631024 -1.3230991 4.0647717 4294952448 401445
0.97866243 -1.3345397 4.1017256 4294952960 405541
0.99642891 -1.3816031 4.2482033 4294954752 409637
0.94497555 -1.3326578 4.0994649 4294952960 413733
0.93931419 -1.3477117 4.1475153 4294953472 417829
0.92294264 -1.3476596 4.1490569 4294953472 421925
0.89273334 -1.327036 4.0872145 4294952448 426021
0.88138759 -1.3342105 4.1109562 4294952704 430117
0.84906727 -1.3093094 4.0358052 4294951936 434213
0.83659738 -1.314653 4.0538182 4294951936 438309
0.82588148 -1.323014 4.0811415 4294952448 442405
0.8131066 -1.3283426 4.0990963 4294952448 446501
0.81256467 -1.3542745 4.1806269 4294953472 450597
0.78146106 -1.3292894 4.1049399 4294952448 454693
0.77957767 -1.3540033 4.1827216 4294953472 458789
0.75384682 -1.3374702 4.1330581 4294952704 462885
0.73553574 -1.3336637 4.1226635 4294952704 466981
0.73466724 -1.3620236 4.211689 4294953728 471077
0.70141208 -1.3302642 4.1148 4294952448 475173
0.68393326 -1.327635 4.1079512 4294952448 479269
0.67568368 -1.3432266 4.1574554 4294952960 483365
0.66317779 -1.3509177 4.1824923 4294953216 487461
0.64029306 -1.337321 4.1415939 4294952704 491557
0.61772859 -1.3237041 4.1005888 4294952192 495653
0.55815703 -1.2279454 3.8049941 4294948352 499749
0.54449421 -1.2307061 3.8145659 4294948608 503845
0.5310238 -1.2340693 3.8259785 4294948608 507941
0.52968812 -1.2666454 3.9279716 4294949888 512037
0.51544851 -1.2693881 3.9374518 4294949888 516133
0.49994007 -1.2690786 3.9374342 4294949888 520229
0.48420346 -1.2681519 3.9354677 4294949888 524325
0.47299197 -1.2794045 3.9712722 4294950400 528421
0.45191631 -1.2638338 3.9237871 4294949632 532517
0.432475 -1.2519014 3.8875644 4294949376 536613
0.43384743 -1.3015423 4.0425396 4294951168 540709
0.40130445 -1.249344 3.8811729 4294949120 544805
