# .PCD v0.7 - Point Cloud Data file format
VERSION 0.7
FIELDS x y z rgba label
SIZE 4 4 4 4 4
TYPE F F F U U
COUNT 1 1 1 1 1
WIDTH 980
HEIGHT 1
VIEWPOINT 0 0 0 1 0 0 0
POINTS 980
DATA ascii
0.3819741 1.8172708 5.9562359 4292214569 585926
0.35552955 1.800585 5.9022245 4292476709 590022
0.34715828 1.879443 6.1613779 4291231544 594118
0.29368478 1.7077227 5.5989957 4293918479 598214
0.27965802 1.7562523 5.7586541 4293132059 602310
0.28155664 1.9219301 6.3024549 4290641729 606406
0.23705629 1.772278 5.8121767 4292935454 610502
0.20885114 1.72577 5.6600652 4293590804 614598
0.1896563 1.7515317 5.7449322 4293197594 618694
0.18255973 1.9107919 6.2676606 4290772799 622790
0.15248147 1.841507 6.0407028 4291886894 626886
0.12555599 1.7920264 5.8786469 4292607779 630982
0.10590668 1.8474832 6.0607886 4291755824 635078
0.083674125 1.876691 6.1567845 4291297079 639174
0.056630138 1.7781863 5.8337507 4292804384 643270
0.03476968 1.8196132 5.9697471 4292214569 647366
0.011797968 1.852281 6.0769668 4291690289 651462
-0.011916821 1.8709409 6.138186 4291428149 655558
-0.033276606 1.7414757 5.7133951 4293394199 659654
-0.057224389 1.7968458 5.8949671 4292542244 663750
-0.077928595 1.7478271 5.734026 4293263129 667846
-0.10182884 1.7763476 5.827424 4292869919 671942
-0.1224513 1.747714 5.7332826 4293263129 676038
-0.15016419 1.8135214 5.9489017 4292280104 680134
-0.14668834 1.535338 5.0361204 4294962688 684230
-0.17109782 1.5801387 5.1827722 4294964480 688326
-0.19431868 1.6056859 5.266222 4294965504 692422
-0.21288677 1.5915819 5.2195849 4294964992 696518
-0.22238491 1.5180187 4.9779358 4294962176 700614
-0.22388417 1.4059926 4.6101718 4294957568 704710
-0.24768536 1.4402446 4.722033 4294959104 708806
-0.21897179 1.185468 3.8863194 4294948864 712902
-0.27304623 1.382847 4.5329008 4294956800 716998
-0.29332232 1.3955032 4.5738621 4294957312 721094
-0.30365971 1.3621306 4.4639354 4294955776 725190
-0.29200938 1.2390668 4.0601072 4294950912 729286
-0.30384609 1.2231753 4.007483 4294950400 733382
-0.3198384 1.2247471 4.0120502 4294950400 737478
-0.37349716 1.363699 4.466548 4294956032 741574
-0.34526244 1.2045823 3.9447556 4294949632 745670
-0.39800492 1.3295058 4.3531332 4294954752 749766
-0.40833166 1.3083279 4.2830539 4294953728 753862
-0.38334611 1.1801047 3.862596 4294948608 757958
-0.39241436 1.1624349 3.8040459 4294948096 762054
-0.43586907 1.2442081 4.0708485 4294951168 766150
-0.4110994 1.1323265 3.7040329 4294946816 770246
-0.42106661 1.1204654 3.6644626 4294946304 774342
-0.40814862 1.0504808 3.4348404 4294943488 778438
-0.42609969 1.0618675 3.4712968 4294944000 782534
-0.41884232 1.0116653 3.306417 4294941952 786630
-0.44079858 1.0329161 3.3750601 4294942976 790726
-0.41250694 0.93860269 3.0661299 4294939136 794822
-0.44877011 0.99235082 3.240896 4294941184 798918
-0.42297468 0.90968525 2.9701498 4294938112 803014
-0.52840501 1.1061279 3.6105731 4294945792 807110
-0.48773006 0.99446255 3.2451818 4294941440 811206
-0.55365461 1.1003009 3.5895445 4294945536 815302
-0.53311294 1.0333177 3.370055 4294942976 819398
-0.5562259 1.0521382 3.4304197 4294943744 823494
-0.54091471 0.99910128 3.2565026 4294941696 827590
-0.59904701 1.0810388 3.5224688 4294945024 831686
-0.56568789 0.99789894 3.2505391 4294941696 835782
-0.58626479 1.0114678 3.2936683 4294942208 839878
-0.57358962 0.96831793 3.1521049 4294940416 843974
-0.60742879 1.0038561 3.2666717 4294941952 848070
-0.609999 0.98731798 3.2117486 4294941184 852166
-0.64568442 1.0239642 3.3297803 4294942720 856262
-0.61574644 0.9571504 3.1113806 4294940160 860358
-0.67431968 1.0278466 3.3399558 4294942976 864454
-0.63695616 0.95240116 3.0936418 4294939904 868550
-0.72633374 1.065742 3.4604743 4294944512 872646
-0.71679419 1.0324466 3.3510447 4294943232 876742
-0.73985094 1.0464559 3.3951719 4294943744 880838
-0.72590876 1.0085635 3.2709107 4294942208 884934
-0.78615308 1.0732698 3.4793217 4294944768 889030
-0.75785553 1.0169514 3.2953644 4294942720 893126
-0.79928619 1.0545204 3.4156547 4294944256 897222
-0.74761188 0.97004187 3.1406586 4294940672 901318
-0.83851004 1.0702933 3.4636996 4294944768 905414
-0.79682583 1.0008132 3.2374067 4294941952 909510
-0.83385116 1.0308238 3.3329661 4294943232 913606
-0.81874698 0.99645948 3.2203546 4294941952 917702
-0.88567257 1.0614549 3.4288054 4294944512 921798
-0.87834799 1.0368469 3.347719 4294943488 925894
-0.94341987 1.0971624 3.5407369 4294946048 929990
-0.88037443 1.0088962 3.2542942 4294942464 934086
-0.92678118 1.046796 3.3748636 4294944000 938182
-0.92575729 1.0308077 3.3216276 4294943488 942278
-0.97908586 1.0749404 3.4620686 4294945280 946374
-0.93730253 1.0148724 3.266911 4294942720 950470
-0.99257821 1.0601006 3.4106927 4294944768 954566
-1.0229087 1.07783 3.4658883 4294945280 958662
-1.015201 1.0555401 3.3923779 4294944512 962758
-0.94461954 0.96931547 3.1135423 4294940928 966854
-1.0894098 1.1034667 3.54249 4294946560 970950
-1.0703384 1.0703384 3.4342046 4294945280 975046
-1.1064578 1.0925401 3.5034263 4294946048 979142
-1.0315078 1.0058804 3.2236869 4294942720 983238
-1.1335752 1.0918486 3.4971559 4294946048 987334
-1.1151162 1.0610501 3.396488 4294945024 991430
-1.172122 1.101935 3.525265 4294946560 995526
-1.0251451 0.95235366 3.0448811 4294940416 999622
-1.13626 1.0432328 3.3333929 4294944256 1003718
-1.088161 0.98752189 3.1534343 4294941952 1007814
-1.2088313 1.0844944 3.4609144 4294946048 1011910
-1.1374991 1.0089681 3.2178502 4294942976 1016006
-1.2439402 1.0910537 3.4774151 4294946304 1020102
-1.2074187 1.0473189 3.3358452 4294944512 1024198
-1.2760305 1.0947366 3.4846032 4294946560 1028294
-1.1984998 1.0171052 3.2353523 4294943488 1032390
-1.2705646 1.0667306 3.3909256 4294945536 1036486
-1.2771684 1.0609282 3.3702109 4294945280 1040582
-1.311095 1.0777063 3.4211607 4294946048 1044678
-1.2330887 1.0030825 3.1820695 4294942976 1048774
-1.2891041 1.037894 3.2902091 4294944256 1052870
-1.2265067 0.97746986 3.0964618 4294941952 1056966
-1.3536475 1.0679531 3.3807011 4294945536 1061062
-1.2517902 0.97776645 3.0929797 4294941952 1065158
-1.4486406 1.1203772 3.5415201 4294947840 1069254
-1.3599148 1.0414957 3.289772 4294944768 1073350
-1.4520873 1.1013415 3.4762213 4294947072 1077446
-1.3523041 1.0158457 3.2039757 4294943744 1081542
-1.5178517 1.1293968 3.5594311 4294948352 1085638
-1.4649954 1.0798323 3.4006176 4294946304 1089734
-1.5764575 1.1511806 3.622539 4294949376 1093830
-1.4963988 1.0826479 3.4042315 4294946560 1097926
-1.5058995 1.0795718 3.3919046 4294946560 1102022
-1.4760282 1.0485811 3.2919397 4294945280 1106118
-1.5713983 1.1063207 3.4704251 4294947584 1110214
-1.457227 1.0168207 3.187125 4294944000 1114310
-1.5825245 1.0945214 3.4278855 4294947328 1118406
-1.4328549 0.98235029 3.074065 4294942720 1122502
-1.5734271 1.0693855 3.3436732 4294946304 1126598
-1.6228431 1.0935037 3.4162257 4294947328 1130694
-1.7093446 1.1419877 3.5647202 4294949376 1134790
-1.5985471 1.0589532 3.3027301 4294946048 1138886
-1.7498519 1.1494843 3.5820253 4294949888 1142982
-1.6737527 1.0903699 3.3949029 4294947328 1147078
-1.7915035 1.1574734 3.6006937 4294950144 1151174
-1.6382232 1.0498002 3.2629044 4294945792 1155270
-1.8265061 1.1609776 3.6052783 4294950400 1159366
-1.718051 1.083269 3.3609757 4294947072 1163462
-1.7902334 1.1197875 3.4711828 4294948864 1167558
-1.5659362 0.97174698 3.0095501 4294942464 1171654
-1.7359608 1.0688072 3.3071613 4294946816 1175750
-1.743489 1.0650886 3.2926369 4294946560 1179846
-1.841524 1.1162906 3.4477398 4294948864 1183942
-1.8512932 1.1136131 3.4362857 4294948608 1188038
-1.9813002 1.1827533 3.6461992 4294951680 1192134
-1.8659942 1.1055136 3.4048898 4294948352 1196230
-1.9480987 1.1455113 3.5247247 4294950144 1200326
-1.8830893 1.0990522 3.3785353 4294948352 1204422
-1.9763449 1.1449673 3.516299 4294950400 1208518
-1.8059169 1.0385675 3.1864228 4294945792 1212614
-1.874662 1.0702616 3.2804742 4294947072 1216710
-1.9604348 1.111149 3.402441 4294948864 1220806
-1.9716828 1.1095133 3.3940666 4294948864 1224902
-2.0957124 1.1709141 3.5783279 4294951680 1228998
-2.1251726 1.1789827 3.5993457 4294951936 1233094
-2.0533633 1.131151 3.449846 4294950144 1237190
-2.2192187 1.2139976 3.6987348 4294953728 1241286
-2.0430989 1.1099188 3.3781693 4294949120 1245382
-2.2104845 1.1925982 3.6260707 4294952704 1249478
-2.0076592 1.0757765 3.2674606 4294947840 1253574
-2.1389096 1.1383349 3.4538703 4294950656 1257670
-2.1603513 1.1420039 3.4613407 4294950912 1261766
-2.2587636 1.1860397 3.5910058 4294952704 1265862
-2.269412 1.1837132 3.5801387 4294952704 1269958
-2.3546696 1.2200763 3.6861396 4294954240 1274054
-2.2508826 1.1586511 3.4967906 4294951680 1278150
-2.3512928 1.2024527 3.6250179 4294953728 1282246
-2.2744443 1.1556238 3.4800377 4294951680 1286342
-2.1859925 1.1035396 3.3195274 4294949376 1290438
-2.2807639 1.1440252 3.4374821 4294951424 1294534
-2.4534843 1.2228477 3.6702342 4294954752 1298630
-2.182076 1.0807127 3.2399712 4294948608 1302726
-2.4326003 1.1972358 3.5852625 4294953728 1306822
3.6666281 1.827567 5.4009886 4289789774 199
3.3872631 1.6989743 5.0266252 4291952429 4295
3.2090213 1.6197916 4.7977581 4293263129 8391
3.0856557 1.5674736 4.6479869 4294180619 12487
3.8531718 1.9699496 5.8479047 4287561584 16583
3.9073472 2.0105767 5.9751244 4286971769 20679
3.8663504 2.0024421 5.9574494 4287102839 24775
3.2981122 1.7193437 5.1207962 4291821359 28871
3.7329307 1.9588646 5.840487 4287889259 32967
3.3957939 1.7937914 5.3540468 4290641729 37063
3.9005415 2.0742009 6.1976438 4286119814 41159
3.5075402 1.8777741 5.6166549 4289331029 45255
3.2554777 1.7546473 5.2539229 4291362614 49351
3.1319709 1.6996019 5.0944285 4292280104 53447
3.7498796 2.0489032 6.14781 4286644094 57543
3.2658393 1.7967767 5.3968849 4290772799 61639
3.5445204 1.963689 5.9042544 4288085864 65735
3.2616067 1.8196332 5.4767232 4290445124 69831
3.6341937 2.0418262 6.1516943 4286906234 73927
3.3894813 1.9178915 5.784102 4288937819 78023
3.6063678 2.0552418 6.2045403 4286709629 82119
3.0434413 1.7469573 5.2790651 4291755824 86215
3.336437 1.9290671 5.8351469 4288872284 90311
3.5372667 2.0601664 6.2377863 4286775164 94407
3.5618443 2.0897906 6.3336215 4286316419 98503
2.8668118 1.6945096 5.1405888 4292738849 102599
3.3866973 2.0167973 6.1241245 4287561584 106695
3.1057854 1.8634713 5.6639476 4290051914 110791
3.2559485 1.9684252 5.9885831 4288413539 114887
3.0874116 1.880837 5.7274661 4289855309 118983
3.0765362 1.8886844 5.7567196 4289724239 123079
3.043896 1.8831886 5.7452292 4289855309 127175
2.9693511 1.8514777 5.653688 4290379589 131271
3.0924127 1.9434531 5.9399247 4288937819 135367
2.8637395 1.814082 5.5495143 4291034939 139463
2.7568653 1.7604079 5.3901467 4291886894 143559
2.9819894 1.9195802 5.8826962 4289396564 147655
2.9457662 1.9117421 5.8638663 4289527634 151751
2.9216914 1.911724 5.8689241 4289593169 155847
2.9086342 1.9189744 5.8962855 4289462099 159943
2.6374185 1.7546005 5.3958735 4292149034 164039
2.7531168 1.8470278 5.684927 4290707264 168135
2.5926743 1.7541924 5.4037833 4292149034 172231
2.6930487 1.8377458 5.6659112 4290903869 176327
2.5707655 1.769488 5.4599996 4291952429 180423
2.6576602 1.845275 5.6985621 4290772799 184519
2.659935 1.8631263 5.7583704 4290576194 188615
2.5923169 1.8319039 5.6664844 4291034939 192711
2.5792449 1.8390131 5.6930442 4290969404 196807
2.5463603 1.8319967 5.6758313 4291100474 200903
2.5478752 1.8498273 5.7356186 4290838334 204999
2.4300394 1.7805358 5.5250745 4291952429 209095
2.646116 1.9568951 6.0770512 4289199959 213191
2.5680785 1.9170164 5.9577885 4289855309 217287
2.4698772 1.8611871 5.7886662 4290772799 221383
2.5542367 1.9431752 6.0482521 4289462099 225479
2.4140966 1.854306 5.7759438 4290903869 229575
2.4452972 1.8965964 5.9120531 4290248519 233671
2.177722 1.7057035 5.3209128 4293263129 237767
2.1966903 1.7376804 5.4245777 4292804384 241863
2.2876039 1.8277839 5.7099881 4291428149 245959
2.305063 1.8604317 5.8161163 4290903869 250055
2.4042995 1.9604288 6.1330409 4289396564 254151
2.4117727 1.9869009 6.2202168 4289003354 258247
2.3506801 1.956849 6.1303544 4289462099 262343
2.2909493 1.9273065 6.041944 4289986379 266439
2.3065748 1.9612054 6.1523843 4289462099 270535
2.1455657 1.8440268 5.788641 4291297079 274631
2.2556081 1.9597906 6.1561437 4289527634 278727
2.0575483 1.8074596 5.6813583 4291886894 282823
2.1368511 1.8980968 5.9701138 4290510659 286919
1.9347944 1.7380357 5.4701967 4293000989 291015
1.9874561 1.8057458 5.6868992 4291952429 295111
2.1197658 1.9482241 6.1394606 4289789774 299207
1.9679266 1.8298265 5.7699413 4291624754 303303
2.0127509 1.8936532 5.9748473 4290641729 307399
1.9877046 1.8924853 5.9747934 4290707264 311495
1.9453391 1.8745995 5.921876 4290969404 315591
1.859082 1.8134604 5.7321048 4291952429 319687
1.8758693 1.8525666 5.8591585 4291362614 323783
1.8853621 1.8853621 5.9663258 4290903869 327879
1.8142493 1.8373607 5.8177171 4291624754 331975
1.8552011 1.9030772 6.0292163 4290641729 336071
1.7427309 1.8110732 5.7409225 4292083499 340167
1.7543907 1.8473386 5.8590765 4291559219 344263
1.8101555 1.9316424 6.1297979 4290248519 348359
1.6942134 1.8325166 5.8183403 4291821359 352455
1.667286 1.8282654 5.807889 4291886894 356551
1.5768561 1.7532876 5.5726213 4293066524 360647
1.7262948 1.9466728 6.190444 4290051914 364743
1.614933 1.8472974 5.8773842 4291624754 368839
1.5749757 1.8278916 5.818562 4291952429 372935
1.52661 1.7980072 5.7262449 4292411174 377031
1.5620607 1.867426 5.9501872 4291362614 381127
1.5330682 1.860747 5.931756 4291493684 385223
1.5136676 1.8656833 5.9502878 4291428149 389319
1.5587288 1.9514793 6.226779 4290117449 393415
1.5550028 1.9779636 6.3141775 4289724239 397511
1.3808064 1.7849449 5.7005706 4292673314 401607
1.327476 1.7443694 5.5734282 4293328664 405703
1.331392 1.7789187 5.6862879 4292804384 409799
1.3520393 1.8373868 5.8756962 4291886894 413895
1.3514178 1.868482 5.977633 4291428149 417991
1.2865757 1.8103145 5.79392 4292345639 422087
1.3543686 1.9400415 6.2116451 4290379589 426183
1.2368128 1.8041582 5.7788711 4292476709 430279
1.2609816 1.873795 6.004252 4291428149 434375
1.163781 1.7622972 5.6491489 4293132059 438471
1.1954376 1.8453841 5.9177237 4291886894 442567
1.1455346 1.8033664 5.785111 4292542244 446663
1.0755357 1.7273754 5.5433226 4293721874 450759
1.1391513 1.8672687 5.9943976 4291559219 454855
1.1625704 1.9457756 6.2485995 4290379589 458951
1.1264905 1.9259354 6.1869798 4290707264 463047
1.0533416 1.840454 5.9143291 4292017964 467143
1.0196958 1.8217037 5.8559976 4292280104 471239
1.0535494 1.9254522 6.1914802 4290707264 475335
0.98168463 1.8363277 5.9067221 4292083499 479431
0.98674184 1.8902645 6.0820446 4291297079 483527
0.94471288 1.8544364 5.9685531 4291821359 487623
0.94410425 1.9001592 6.1174903 4291166009 491719
0.86103928 1.7779902 5.7257848 4293000989 495815
0.89098126 1.8888804 6.0845518 4291362614 499911
0.81486267 1.7748379 5.7187233 4293066524 504007
0.78670639 1.7617791 5.6781368 4293263129 508103
0.78488523 1.8086486 5.8306751 4292607779 512199
0.78882599 1.8719901 6.0363541 4291624754 516295
0.77555698 1.8971317 6.1188736 4291231544 520391
0.7280972 1.8375788 5.9281683 4292149034 524487
0.70942652 1.8491609 5.9668827 4292017964 528583
0.70487159 1.8995693 6.1308761 4291231544 532679
0.65284932 1.8211061 5.8788671 4292411174 536775
0.59464145 1.7190543 5.5505438 4293984014 540871
0.61826617 1.8547986 5.9899974 4291952429 544967
0.56747025 1.769172 5.7145505 4293197594 549063
0.5180887 1.6811448 5.4312077 4294573829 553159
0.56702387 1.9182298 6.1982293 4290969404 557255
0.55332255 1.955073 6.3183298 4290445124 561351
0.5206871 1.9253314 6.2231994 4290903869 565447
0.50140721 1.9444816 6.2860465 4290576194 569543
0.47499335 1.9365114 6.2611775 4290707264 573639
0.42271197 1.816519 5.8740225 4292542244 577735
0.41964018 1.9063655 6.1653681 4291166009 581831
0.39118069 1.8847797 6.096313 4291493684 585927
0.37395331 1.9180186 6.204546 4291034939 590023
0.3332994 1.8274001 5.9120493 4292411174 594119
0.31024423 1.8269938 5.9113336 4292411174 598215
0.27903536 1.774665 5.7425599 4293197594 602311
0.28344506 1.959468 6.3411036 4290379589 606407
0.23536366 1.7820392 5.7673755 4293066524 610503
0.23009643 1.9255439 6.2322602 4290903869 614599
0.18689956 1.7480605 5.6581779 4293590804 618695
0.17611051 1.8667713 6.0427709 4291821359 622791
0.142794 1.7464805 5.6536694 4293656339 626887
0.13475321 1.9477966 6.3056426 4290576194 630983
0.10437708 1.8439952 5.9698234 4292149034 635079
0.08224979 1.8682452 6.0485086 4291821359 639175
0.058955263 1.8747773 6.0697894 4291690289 643271
0.036542945 1.936776 6.2706084 4290772799 647367
0.011795016 1.8754075 6.0719628 4291690289 651463
-0.011360707 1.8063524 5.8483849 4292738849 655559
-0.034382552 1.8222753 5.8998947 4292476709 659655
-0.055651613 1.7697214 5.7296596 4293263129 663751
-0.084458366 1.9184114 6.2109232 4291034939 667847
-0.10735022 1.8965206 6.1398711 4291362614 671943
-0.12393377 1.7914063 5.7993574 4292935454 676039
-0.15061039 1.842081 5.9631453 4292214569 680135
-0.16364054 1.7345897 5.6148963 4293787409 684231
-0.18917073 1.7693027 5.7269354 4293263129 688327
-0.21775788 1.8222896 5.8980651 4292476709 692423
-0.23614287 1.787939 5.7864699 4293000989 696519
-0.24717705 1.7087457 5.5297322 4294180619 700615
-0.28228158 1.7953109 5.8093672 4292869919 704711
-0.32366562 1.9060309 6.1670623 4291231544 708807
-0.3298572 1.8085275 5.8509922 4292673314 712903
-0.35383284 1.8148201 5.8707118 4292607779 716999
-0.36927506 1.7792344 5.7549272 4293132059 721095
-0.4104259 1.8645062 6.0299911 4291821359 725191
-0.43876171 1.8854895 6.0970507 4291493684 729287
-0.43812734 1.7862115 5.7752242 4293000989 733383
-0.48909807 1.8967462 6.1317296 4291297079 737479
-0.49582797 1.8334104 5.9260855 4292280104 741575
-0.50346768 1.7789191 5.7490425 4293066524 745671
-0.52175254 1.7650777 5.7033606 4293328664 749767
-0.52044815 1.6888012 5.4559426 4294442759 753863
-0.53158426 1.6572921 5.3531713 4294901504 757959
-0.51994801 1.559844 5.0374537 4294963200 762055
-0.51238322 1.4812533 4.7827234 4294960128 766151
-0.49968448 1.3938568 4.4996276 4294956544 770247
-0.54854882 1.4782927 4.7712021 4294959872 774343
-0.58597928 1.5273887 4.928586 4294961920 778439
-0.6139133 1.5494002 4.9984827 4294962688 782535
-0.53975302 1.3203189 4.2584629 4294953728 786631
-0.63004518 1.4951819 4.8213115 4294960640 790727
-0.65379477 1.5065705 4.8568435 4294961152 794823
-0.57707542 1.2923238 4.165103 4294952704 798919
-0.66599482 1.4505914 4.6739659 4294958848 803015
-0.63752323 1.3515493 4.3536754 4294955008 807111
-0.62875628 1.2983409 4.1811371 4294952960 811207
-0.65044773 1.309129 4.2146912 4294953472 815303
-0.69183296 1.3580425 4.3708959 4294955264 819399
-0.6964606 1.3341836 4.2928195 4294954496 823495
-0.61929363 1.1584433 3.7262428 4294947584 827591
-0.68884069 1.2589158 4.0481668 4294951424 831687
-0.66115385 1.1811625 3.796932 4294948352 835783
-0.67210668 1.1743402 3.7737617 4294948096 839879
-0.75036561 1.2828832 4.1212039 4294952448 843975
-0.74770397 1.2514204 4.0187697 4294951168 848071
-0.73676187 1.2076818 3.8769596 4294949632 852167
-0.7374841 1.1844442 3.8010013 4294948608 856263
-0.69415647 1.0927809 3.5055878 4294945024 860359
-0.73112375 1.1286279 3.619251 4294946304 864455
-0.75623578 1.1451571 3.6708696 4294947072 868551
-0.75501639 1.1219403 3.5950634 4294946304 872647
-0.7340011 1.0706989 3.4295387 4294944256 876743
-0.72435391 1.037588 3.32216 4294942976 880839
-0.71057129 0.99983042 3.1999619 4294941440 884935
-0.70639896 0.97667331 3.1245656 4294940416 889031
-0.70637244 0.95994204 3.0697553 4294939904 893127
-0.77092069 1.0300537 3.2925515 4294942720 897223
-0.74940664 0.98475748 3.1463952 4294940928 901319
-0.7830801 1.0122743 3.2328959 4294941952 905415
-0.7702949 0.97981507 3.1278262 4294940672 909511
-0.85568607 1.071292 3.418278 4294944256 913607
-0.88338554 1.088824 3.4726241 4294945024 917703
-0.97567594 1.1842173 3.7750909 4294948864 921799
-0.90992647 1.0878068 3.4660835 4294945024 925895
-0.91478276 1.0774108 3.4313087 4294944768 929991
-0.86237359 1.000857 3.1859376 4294941696 934087
-0.8679409 0.99282449 3.1587825 4294941440 938183
-0.85016483 0.95869648 3.048667 4294939904 942279
-0.94986624 1.056145 3.3568344 4294944000 946375
-0.90983695 0.99768323 3.1693611 4294941696 950471
-0.95133919 1.0289996 3.2671301 4294942976 954567
-0.91876847 0.98043078 3.1112604 4294940928 958663
-0.97124428 1.0227009 3.2436302 4294942720 962759
-0.96855456 1.0065371 3.1906228 4294941952 966855
-1.0077045 1.0337098 3.2749376 4294943232 970951
-1.0121602 1.0250539 3.2456737 4294942720 975047
-0.97427207 0.97427207 3.0831342 4294940928 979143
-1.0145752 1.0019718 3.168961 4294941952 983239
-1.0957152 1.0688264 3.3784168 4294944768 987335
-1.0056946 0.9691239 3.0614705 4294940672 991431
-1.029374 0.98006272 3.0941706 4294941184 995527
-1.1114005 1.0456371 3.2991903 4294943744 999623
-1.1900314 1.1065204 3.4891603 4294946304 1003719
-1.0706677 0.98402411 3.1009662 4294941440 1007815
-1.1575849 1.0517486 3.312309 4294944256 1011911
-1.0895796 0.97877491 3.0805416 4294941184 1016007
-1.1954615 1.0618904 3.3399804 4294944512 1020103
-1.1212611 0.98497522 3.0960567 4294941440 1024199
-1.2252076 1.0645245 3.3439114 4294944768 1028295
-1.2024893 1.0334908 3.2442622 4294943488 1032391
-1.2072768 1.0265081 3.2201996 4294943232 1036487
-1.2336403 1.0378244 3.2534924 4294943744 1040583
-1.2890826 1.0731107 3.3618073 4294945280 1044679
-1.1769562 0.96961677 3.0354943 4294940928 1048775
-1.3051711 1.0642165 3.3293142 4294945024 1052871
-1.3063319 1.0543491 3.2961259 4294944512 1056967
-1.3379114 1.0689844 3.3395021 4294945280 1061063
-1.3842207 1.0949806 3.4182394 4294946304 1065159
-1.3367008 1.0469726 3.2660129 4294944256 1069255
-1.3371632 1.0371168 3.2328911 4294944000 1073351
-1.3625281 1.0465795 3.2599714 4294944512 1077447
-1.3918295 1.058856 3.2957542 4294945024 1081543
-1.3363605 1.0070205 3.1320362 4294942720 1085639
-1.4224081 1.0617976 3.2999015 4294945024 1089735
-1.4331374 1.0598551 3.2913332 4294945024 1093831
-1.4283674 1.0465918 3.2476165 4294944512 1097927
-1.4692241 1.066697 3.307426 4294945280 1102023
-1.5160365 1.090723 3.3792422 4294946304 1106119
-1.5150837 1.0802615 3.344172 4294946048 1110215
-1.5011091 1.0607837 3.281239 4294945280 1114311
-1.5019721 1.0520421 3.25155 4294945024 1118407
-1.5399262 1.0692064 3.3019137 4294945792 1122503
-1.4801625 1.0188131 3.1436889 4294943744 1126599
-1.4859763 1.0140353 3.1263487 4294943488 1130695
-1.5979508 1.0811667 3.3305304 4294946304 1134791
-1.5959796 1.0707204 3.2955472 4294945792 1138887
-1.6198815 1.0776618 3.3141029 4294946304 1142983
-1.5522058 1.0240694 3.1465797 4294944000 1147079
-1.6510187 1.0802963 3.3164706 4294946304 1151175
-1.6493704 1.0704077 3.2832503 4294946048 1155271
-1.6292628 1.0487967 3.2141154 4294945280 1159367
-1.7634318 1.1260468 3.4478133 4294948352 1163463
-1.7231759 1.0915736 3.3392665 4294947072 1167559
-1.8018748 1.1324035 3.4610517 4294948864 1171655
-1.7224827 1.0740186 3.2796321 4294946304 1175751
-1.8063717 1.1175607 3.4094527 4294948352 1179847
-1.7544633 1.0770643 3.2828975 4294946560 1183943
-1.7517973 1.0671868 3.2497642 4294946304 1188039
-1.7929515 1.0839517 3.29773 4294947072 1192135
-1.677392 1.0064353 3.0590203 4294943744 1196231
-1.7758887 1.0575517 3.2113183 4294946048 1200327
-1.8520775 1.0947224 3.3210301 4294947584 1204423
-1.8169599 1.0660392 3.2308924 4294946304 1208519
-1.9679928 1.1461936 3.4704533 4294949888 1212615
-1.7495658 1.0115672 3.0598431 4294944256 1216711
-1.9026909 1.0921583 3.3003526 4294947584 1220807
-2.0072951 1.1439424 3.4534311 4294949888 1224903
-1.9516374 1.1043073 3.3304417 4294948096 1228999
-1.9880228 1.1169456 3.3651779 4294948864 1233095
-1.9803842 1.1048459 3.3253601 4294948352 1237191
-2.070483 1.1470621 3.4488893 4294950144 1241287
-2.0668545 1.1371276 3.4155314 4294949888 1245383
-1.9478137 1.0642694 3.1933796 4294946816 1249479
-1.9642198 1.0659077 3.1949778 4294946816 1253575
-2.1559622 1.1620271 3.4794462 4294950912 1257671
-2.0409267 1.0926174 3.2681539 4294948096 1261767
-2.1765339 1.157421 3.4583356 4294950912 1265863
-2.0372701 1.0761659 3.2121031 4294947584 1269959
-2.1781907 1.143011 3.4079642 4294950400 1274055
-2.0849655 1.0869164 3.2372108 4294948096 1278151
-2.1686983 1.123202 3.3416293 4294949632 1282247
-2.2099664 1.1371672 3.3794858 4294950400 1286343
-2.0629697 1.0547016 3.13094 4294946816 1290439
-1.9994197 1.0156796 3.0117671 4294945280 1294535
-2.1159735 1.0680628 3.1635592 4294947584 1298631
-2.2206886 1.113847 3.2954538 4294949632 1302727
-2.301446 1.1471157 3.3900585 4294950912 1306823
3.640799 1.8375193 5.3598814 4289986379 200
3.6370478 1.8472072 5.3942447 4289855309 4296
3.7197502 1.9012057 5.5581551 4289003354 8392
3.9790378 2.0467255 5.9903007 4286709629 12488
3.8615997 1.9990919 5.8573632 4287496049 16584
3.5702975 1.860252 5.4565921 4289789774 20680
3.8976886 2.0440648 6.0023389 4286840699 24776
3.5670955 1.8829585 5.5352597 4289462099 28872
3.3506527 1.7803798 5.2394023 4291166009 32968
3.5988898 1.9249877 5.67103 4288872284 37064
3.8235703 2.0588455 6.071877 4286709629 41160
3.2234027 1.7473664 5.1587429 4291821359 45256
3.6131999 1.9719498 5.8279004 4288216934 49352
3.2621188 1.7924953 5.3031106 4291100474 53448
3.3653338 1.8619201 5.5142097 4290051914 57544
3.5546198 1.9802554 5.8707509 4288151399 61640
3.0577102 1.7153009 5.0904727 4292476709 65736
3.4190981 1.9314904 5.737885 4289003354 69832
3.0221379 1.7193081 5.1127439 4292476709 73928
3.5780091 2.0500338 6.1023302 4287168374 78024
3.2982166 1.9032719 5.671145 4289593169 82120
3.3027451 1.919646 5.7256026 4289331029 86216
3.3698428 1.9728898 5.8901916 4288544609 90312
3.1069162 1.8322839 5.47577 4290772799 94408
3.2641616 1.9392252 5.8009605 4289134424 98504
3.4040787 2.0373852 6.1004949 4287561584 102600
3.4470444 2.0785549 6.2297177 4286971769 106696
3.2148399 1.953167 5.8594632 4289003354 110792
3.1376016 1.920737 5.7676258 4289527634 114888
2.7877145 1.7196246 5.16853 4292738849 118984
3.0729814 1.9102317 5.7467799 4289724239 123080
2.9522734 1.8494787 5.5691357 4290707264 127176
2.8150251 1.7773297 5.3567696 4291886894 131272
3.072036 1.9549321 5.8974228 4289134424 135368
3.143796 2.0165384 6.0887246 4288151399 139464
2.7815197 1.7984926 5.4352369 4291624754 143560
3.0332172 1.9771173 5.9803581 4288872284 147656
2.760603 1.8141105 5.4921174 4291428149 151752
2.9208808 1.9352337 5.8639479 4289593169 155848
3.1242962 2.0871854 6.3298302 4287233909 159944
2.6401317 1.7784986 5.3983274 4292083499 164040
2.8418517 1.9305406 5.864819 4289724239 168136
3.0849648 2.113529 6.4261351 4286840699 172232
2.4765863 1.7112893 5.2075171 4293197594 176328
2.8855124 2.0111146 6.1249657 4288544609 180424
2.5523829 1.7944702 5.4696827 4291952429 184520
2.7959363 1.983021 6.049345 4289003354 188616
2.594038 1.8561783 5.6669726 4291034939 192712
2.5983469 1.8759366 5.7319231 4290772799 196808
2.6257477 1.9128751 5.8494306 4290182984 200904
2.7114394 1.9933412 6.1003094 4288937819 205000
2.5112362 1.8631753 5.7064281 4291034939 209096
2.4571085 1.8399744 5.6397123 4291362614 213192
2.5468841 1.9251096 5.9052267 4290117449 217288
2.5173583 1.920828 5.8965731 4290182984 221384
2.4692695 1.9021646 5.8436809 4290510659 225480
2.4762747 1.9259915 5.921319 4290117449 229576
2.3999567 1.8848439 5.7990847 4290772799 233672
2.3768163 1.8850613 5.8040237 4290838334 237768
2.3349581 1.8702898 5.7627282 4291100474 241864
2.0874951 1.6888779 5.2074885 4293918479 245960
2.3044505 1.8833327 5.8112311 4290903869 250056
2.1798677 1.7997882 5.5573521 4292214569 254152
2.3723092 1.9789729 6.1149011 4289462099 258248
2.1326079 1.7976433 5.558455 4292280104 262344
2.182344 1.8590337 5.7521906 4291362614 266440
2.1452312 1.8469638 5.7187295 4291559219 270536
2.1609731 1.8806306 5.8268752 4291100474 274632
2.2002985 1.9357818 6.0017061 4290248519 278728
2.2774301 2.0257804 6.2848825 4288872284 282824
2.094327 1.8837242 5.8479447 4291100474 286920
1.985411 1.8059388 5.6100526 4292280104 291016
1.8940914 1.742564 5.4166317 4293263129 295112
2.0560694 1.9134518 5.9515409 4290707264 299208
2.0199525 1.9018266 5.9190555 4290903869 303304
1.992038 1.8977404 5.9099684 4290969404 307400
2.0687535 1.9944271 6.2148151 4289462099 311496
1.9263058 1.8796074 5.860548 4291297079 315592
1.998552 1.9740299 6.1586003 4289855309 319688
1.8812213 1.8812213 5.8724632 4291297079 323784
1.9165775 1.9406854 6.0616069 4290379589 327880
1.8462504 1.8932887 5.9169397 4291100474 331976
1.7849216 1.8540155 5.7974415 4291755824 336072
1.7889798 1.8825213 5.8898754 4291297079 340168
1.7989386 1.9180737 6.0044017 4290772799 344264
1.7316343 1.8710947 5.8604889 4291493684 348360
1.6622185 1.8205251 5.7051682 4292280104 352456
1.6145931 1.7927551 5.6211038 4292738849 356552
1.7910873 2.0165389 6.3260341 4289331029 360648
1.7689846 2.0199044 6.3398662 4289331029 364744
1.671783 1.9363817 6.0807877 4290576194 368840
1.5565872 1.8292739 5.7472806 4292214569 372936
1.6203399 1.9324054 6.0743098 4290707264 377032
1.5315359 1.8539644 5.8305626 4291886894 381128
1.5996753 1.9660131 6.1858754 4290182984 385224
1.4651804 1.8286359 5.7563496 4292280104 389320
1.4254771 1.8071009 5.6911969 4292673314 393416
1.4873495 1.9157062 6.0359659 4291034939 397512
1.5119196 1.9790167 6.2382436 4290051914 401608
1.5105785 2.0099435 6.3385363 4289593169 405704
1.4160683 1.9158571 6.0444398 4291034939 409800
1.401006 1.92788 6.0849557 4290903869 413896
1.4033444 1.9646821 6.2037325 4290314054 417992
1.3604368 1.9383215 6.1230178 4290772799 422088
1.2798785 1.8564004 5.8665929 4292017964 426184
1.2485085 1.8441272 5.8301373 4292214569 430280
1.3258717 1.9950032 6.309598 4289920844 434376
1.2610848 1.9336634 6.1179352 4290838334 438472
1.1905926 1.8610234 5.8903108 4291952429 442568
1.2577505 2.0049291 6.348145 4289789774 446664
1.1306182 1.8386821 5.8238707 4292345639 450760
1.1741836 1.9489027 6.1751623 4290707264 454856
1.065766 1.8061929 5.7249646 4292804384 458952
1.1063296 1.9152588 6.0727415 4291231544 463048
1.1030005 1.9514625 6.1895938 4290641729 467144
1.0082934 1.8239915 5.787158 4292607779 471240
1.0256989 1.8981323 6.0243039 4291493684 475336
1.0713539 2.0292704 6.4425292 4289527634 479432
0.97546172 1.8921607 6.0090623 4291624754 483528
0.950445 1.8891561 6.0012927 4291624754 487624
0.96017903 1.9568206 6.2180247 4290641729 491720
0.92362744 1.931221 6.1384282 4291034939 495816
0.91316974 1.960271 6.2324848 4290576194 499912
0.82490569 1.8193126 5.7858686 4292738849 504008
0.78940296 1.7900547 5.6942945 4293197594 508104
0.7890256 1.8410598 5.8580217 4292411174 512200
0.79901928 1.9200314 6.110816 4291231544 516296
0.7844795 1.9430954 6.1857038 4290903869 520392
0.70555323 1.8030804 5.7413044 4293000989 524488
0.67090201 1.7707413 5.6395893 4293525269 528584
0.690723 1.8848543 6.0043139 4291821359 532680
0.65015662 1.8364072 5.8512216 4292542244 536776
0.63337052 1.8540483 5.9086351 4292280104 540872
0.59770823 1.8156798 5.7874932 4292869919 544968
0.63472152 2.0037286 6.3881001 4290051914 549064
0.57583809 1.8920395 6.0331087 4291690289 553160
0.54755783 1.8756768 5.9819617 4291952429 557256
0.52317744 1.8718127 5.9706316 4292017964 561352
0.49235874 1.8434827 5.8812113 4292476709 565448
0.47211054 1.8538975 5.9153414 4292280104 569544
0.45015642 1.858338 5.9303708 4292214569 573640
0.41355693 1.7995316 5.7434959 4293132059 577736
0.39151257 1.8009579 5.7487946 4293132059 581832
0.38594183 1.8829284 6.0111856 4291886894 585928
0.34960872 1.8157098 5.7972574 4292869919 590024
0.33063662 1.8356032 5.8614025 4292607779 594120
0.32017747 1.9092064 6.0970507 4291493684 598216
0.28554985 1.8389411 5.8732171 4292542244 602312
0.26468992 1.8528295 5.9180918 4292345639 606408
0.22767442 1.7455039 5.5757322 4293918479 610504
0.20593539 1.7450315 5.5746284 4293984014 614600
0.20015897 1.8956232 6.0561004 4291690289 618696
0.1693881 1.818099 5.8087645 4292869919 622792
0.1495108 1.8516337 5.9162064 4292345639 626888
0.1292893 1.8923252 6.046483 4291755824 630984
0.10501805 1.8786563 6.0030246 4291952429 635080
0.084851176 1.9515771 6.2362146 4290903869 639176
0.058531791 1.8847237 6.0227165 4291886894 643272
0.035331041 1.8960992 6.059155 4291690289 647368
0.011543375 1.8584833 5.938993 4292280104 651464
-0.011480306 1.8483293 5.9065447 4292411174 655560
-0.036232542 1.9444798 6.2137594 4290969404 659656
-0.056509934 1.8196199 5.8146744 4292869919 663752
-0.07994318 1.8386933 5.8754969 4292542244 667848
-0.10628675 1.9013518 6.0755453 4291624754 671944
-0.12888125 1.8863528 6.0274 4291886894 676040
-0.15076455 1.867161 5.9658184 4292149034 680136
-0.18135016 1.9464916 6.2189746 4290969404 684232
-0.1922144 1.8203834 5.8157258 4292804384 688328
-0.21692801 1.8381793 5.8721962 4292542244 692424
-0.25041461 1.9198453 6.132638 4291362614 696520
-0.26315475 1.8420832 5.8837676 4292476709 700616
-0.29342902 1.8896829 6.0352764 4291821359 704712
-0.30556253 1.822058 5.8187423 4292804384 708808
-0.33848459 1.8791732 6.0005288 4291952429 712904
-0.35512432 1.8443555 5.8887181 4292476709 717000
-0.38068262 1.8572698 5.9292712 4292280104 721096
-0.39877602 1.8343697 5.8554478 4292607779 725192
-0.42630708 1.8550119 5.9205704 4292280104 729288
-0.44495481 1.8368647 5.861845 4292542244 733384
-0.46922487 1.8425659 5.8791852 4292476709 737480
-0.5007996 1.8750869 5.9820371 4291952429 741576
-0.49618122 1.7752261 5.6625438 4293459734 745672
-0.5137977 1.7600304 5.6131392 4293721874 749768
-0.51488942 1.6917795 5.3945436 4294704899 753864
-0.51372331 1.6217539 5.1703243 4294964736 757960
-0.51905984 1.5767667 5.0259557 4294962944 762056
-0.56906688 1.6658139 5.3087544 4294966528 766152
-0.53777343 1.5189741 4.8398056 4294960896 770248
-0.55390942 1.5115156 4.8150215 4294960640 774344
-0.57459164 1.5165452 4.8300061 4294960640 778440
-0.61309421 1.5667963 4.9889369 4294962688 782536
-0.56154364 1.3909005 4.4278312 4294955776 786632
-0.61284965 1.4726685 4.6870103 4294959104 790728
-0.66565675 1.5531991 4.9420848 4294962176 794824
-0.62997532 1.4285356 4.5442758 4294957312 798920
-0.63003331 1.3895255 4.4190388 4294955776 803016
-0.63438791 1.3618194 4.3297677 4294954752 807112
-0.64743429 1.3537263 4.3028483 4294954496 811208
-0.6276356 1.2791055 4.0645065 4294951680 815304
-0.69591755 1.3832434 4.3941569 4294955776 819400
-0.69850713 1.3549354 4.3029599 4294954496 823496
-0.66875416 1.2666991 4.0215173 4294951168 827592
-0.67947137 1.2574126 3.9907835 4294950912 831688
-0.75224495 1.3608027 4.317553 4294954752 835784
-0.68948007 1.2198493 3.8690839 4294949376 839880
-0.77355766 1.3391697 4.2461271 4294953984 843976
-0.75042373 1.2717707 4.0310435 4294951424 848072
-0.71064782 1.179529 3.7373762 4294947840 852168
-0.74397624 1.2099007 3.8322589 4294949120 856264
-0.72568959 1.1567923 3.6627159 4294947072 860360
-0.69853401 1.0918833 3.4559112 4294944512 864456
-0.70604551 1.0826031 3.4252579 4294944000 868552
-0.73925841 1.1123421 3.5180051 4294945280 872648
-0.73118067 1.0800008 3.414381 4294944000 876744
-0.74552673 1.0813495 3.4172788 4294944000 880840
-0.74580532 1.0626075 3.3567009 4294943488 884936
-0.67605907 0.94648272 2.9886391 4294938880 889032
-0.74198645 1.0210241 3.2226522 4294941696 893128
-0.73822123 0.99876988 3.1510723 4294940928 897224
-0.79017943 1.0513958 3.3156707 4294942976 901320
-0.82269853 1.0768656 3.3944886 4294944000 905416
-0.78768933 1.0145438 3.1966031 4294941696 909512
-0.78414011 0.99406737 3.1306682 4294940928 913608
-0.85930532 1.0724663 3.3760087 4294944000 917704
-0.89088869 1.0949091 3.4450283 4294944768 921800
-0.88851905 1.0755757 3.3825955 4294944000 925896
-0.88272429 1.0527304 3.3091457 4294943232 929992
-0.88587278 1.0410621 3.2708476 4294942720 934088
-0.86845541 1.0059087 3.1588387 4294941440 938184
-0.89438421 1.0212471 3.205385 4294941952 942280
-0.9003619 1.0136942 3.1800349 4294941696 946376
-0.93043005 1.0330982 3.2392335 4294942464 950472
-0.92083961 1.0085386 3.1605623 4294941696 954568
-0.90361446 0.97638881 3.0581646 4294940416 958664
-1.0047162 1.0712537 3.353488 4294944000 962760
-0.99857146 1.0507843 3.2876065 4294943232 966856
-1.0003779 1.0391022 3.2492361 4294942976 970952
-1.0041711 1.0297551 3.218209 4294942464 975048
-0.99447507 1.0069841 3.1452508 4294941696 979144
-1.0735246 1.0735246 3.3511388 4294944256 983240
-1.0065097 0.99415982 3.1015909 4294941184 987336
-1.083379 1.0571153 3.296047 4294943744 991432
-1.0855895 1.0465863 3.2612576 4294943232 995528
-1.102206 1.0500306 3.2700193 4294943488 999624
-1.0601892 0.99818987 3.1066666 4294941440 1003720
-1.1081717 1.0313044 3.207737 4294942720 1007816
-1.1038601 1.0155513 3.1567662 4294942208 1011912
-1.1572784 1.0526657 3.2700498 4294943744 1016008
-1.1805795 1.0618621 3.2965076 4294944000 1020104
-1.1571366 1.0292763 3.1932783 4294942720 1024200
-1.2436184 1.0941124 3.3921905 4294945536 1028296
-1.2437327 1.0823836 3.3536165 4294945024 1032392
-1.2220522 1.0521413 3.2577312 4294943744 1036488
-1.2723266 1.0838337 3.35358 4294945024 1040584
-1.2423924 1.0472523 3.2381866 4294943744 1044680
-1.2344595 1.0297823 3.1819623 4294942976 1048776
-1.2953345 1.0694813 3.3023241 4294944512 1052872
-1.3458217 1.0998847 3.393816 4294945792 1056968
-1.357816 1.0985346 3.3872228 4294945792 1061064
-1.3568145 1.0868018 3.3486483 4294945280 1065160
-1.3519073 1.0722023 3.3012655 4294944768 1069256
-1.4272289 1.1208968 3.4486544 4294946816 1073352
-1.3772686 1.0712088 3.2933526 4294944768 1077448
-1.3686681 1.0543327 3.2390387 4294944256 1081544
-1.4002876 1.0684659 3.2799854 4294944768 1085640
-1.4200785 1.0733927 3.2926059 4294945024 1089736
-1.3963541 1.0456419 3.2050006 4294944000 1093832
-1.4028498 1.0408241 3.187777 4294943744 1097928
-1.4450371 1.0623332 3.2511051 4294944768 1102024
-1.5630479 1.1386909 3.482033 4294947840 1106120
-1.531628 1.1057942 3.3787537 4294946560 1110216
-1.5880156 1.1363133 3.4692016 4294947840 1114312
-1.4472278 1.0264479 3.1312518 4294943488 1118408
-1.6217381 1.1401739 3.4753375 4294948096 1122504
-1.5953455 1.1119075 3.3863785 4294946816 1126600
-1.5394773 1.063759 3.2370584 4294945024 1130696
-1.4966332 1.025353 3.1175616 4294943488 1134792
-1.5014108 1.0199457 3.0985088 4294943232 1138888
-1.5852585 1.0678939 3.2414081 4294945280 1142984
-1.6115952 1.0766258 3.2650952 4294945792 1147080
-1.610739 1.0671974 3.2337129 4294945280 1151176
-1.6579124 1.0894853 3.2983556 4294946304 1155272
-1.663909 1.0845723 3.2805998 4294946048 1159368
-1.70999 1.1056561 3.3414111 4294947072 1163464
-1.672906 1.0730593 3.2399893 4294945792 1167560
-1.7503204 1.1138402 3.36011 4294947328 1171656
-1.8464816 1.1658177 3.5137079 4294949632 1175752
-1.7999475 1.1275935 3.3954008 4294948096 1179848
-1.7444181 1.084368 3.2622349 4294946304 1183944
-1.796365 1.1081026 3.3305299 4294947328 1188040
-1.8267895 1.1183008 3.3580549 4294947840 1192136
-1.7401597 1.0572292 3.1716671 4294945280 1196232
-1.7776655 1.0719256 3.2127101 4294946048 1200328
-1.9408441 1.1616204 3.4782126 4294949888 1204424
-1.8027513 1.0710073 3.2037902 4294946048 1208520
-1.9412895 1.1448631 3.4214168 4294949120 1212616
-1.8983082 1.1113732 3.3180773 4294947840 1216712
-1.86994 1.0868604 3.2417076 4294946816 1220808
-1.862278 1.0746479 3.2021089 4294946304 1224904
-2.021466 1.1582065 3.4476302 4294949888 1229000
-1.9575711 1.1136712 3.3117483 4294948096 1233096
-1.997957 1.1286705 3.3529449 4294948864 1237192
-2.0831609 1.1686025 3.468044 4294950400 1241288
-1.9641726 1.0942277 3.2439947 4294947328 1245384
-1.9176847 1.060987 3.1421893 4294946048 1249480
-1.9842583 1.0903263 3.2257385 4294947328 1253576
-2.029165 1.1074426 3.2729359 4294948096 1257672
-2.0509784 1.1118098 3.2823918 4294948352 1261768
-2.0851648 1.122781 3.3112674 4294948864 1265864
-2.2504008 1.2037027 3.5461187 4294952448 1269960
-2.1137755 1.1231612 3.3053024 4294948864 1274056
-2.2421296 1.1835504 3.4792368 4294951680 1278152
-2.1213942 1.1125227 3.2668917 4294948608 1282248
-1.9886467 1.0361557 3.0393083 4294945536 1286344
-2.1687422 1.122725 3.289598 4294949120 1290440
-2.1622081 1.1121901 3.2551279 4294948864 1294536
-2.1886232 1.1186297 3.2703023 4294949120 1298632
-2.2441816 1.1397895 3.3284318 4294950144 1302728
-2.0752826 1.0473996 3.0551722 4294946048 1306824
2.9590852 1.512009 4.353754 4294965248 201
3.7478604 1.9271333 5.5553966 4288937819 4297
3.5251567 1.8241286 5.264359 4290641729 8393
3.4044967 1.7729487 5.1223879 4291493684 12489
3.6012278 1.8874602 5.4592948 4289658704 16585
3.5125022 1.8528733 5.3651481 4290248519 20681
3.5563278 1.888213 5.4735007 4289724239 24777
3.5598629 1.9024841 5.5208559 4289527634 28873
3.4471071 1.8543843 5.3871136 4290314054 32969
3.8326089 2.0754659 6.0358577 4286840699 37065
3.549068 1.9347762 5.6326942 4289134424 41161
3.2999535 1.8110856 5.2782159 4291100474 45257
3.539273 1.9555982 5.7053685 4288872284 49353
3.5088449 1.9520195 5.7009082 4288937819 53449
3.3754129 1.8906952 5.5275555 4289920844 57545
3.3387377 1.8830942 5.511003 4290117449 61641
3.2586708 1.8507433 5.4219089 4290641729 65737
3.5065923 2.0055246 5.8813186 4288216934 69833
3.2812734 1.8899207 5.5479307 4290051914 73929
3.8080389 2.2089336 6.4909244 4285071254 78025
3.3590696 1.9624672 5.7724252 4289003354 82121
3.5531032 2.0908151 6.1560726 4286971769 86217
3.4041343 2.0177231 5.9466891 4288151399 90313
3.2358413 1.9320225 5.6996937 4289527634 94409
3.1615856 1.9016179 5.6154418 4290051914 98505
3.3488379 2.0292215 5.9980092 4288085864 102601
2.9415653 1.795787 5.3131189 4291755824 106697
3.1308613 1.9257751 5.7030978 4289789774 110793
3.0725458 1.9042774 5.6447673 4290117449 114889
3.0520132 1.9060465 5.6552997 4290117449 118985
3.107404 1.9556248 5.8077717 4289396564 123081
3.1419189 1.9927347 5.92346 4288806749 127177
2.8990552 1.8531215 5.5134764 4291034939 131273
3.2315159 2.0819647 6.1999803 4287496049 135369
3.0795178 1.9998462 5.960804 4288806749 139465
2.9921882 1.9587417 5.8434873 4289462099 143561
2.8155239 1.8580178 5.5479407 4291100474 147657
2.9269052 1.9472878 5.8195958 4289724239 151753
2.8867235 1.9363619 5.7920079 4289920844 155849
2.7203529 1.8399068 5.508266 4291428149 159945
2.6967211 1.8391863 5.510818 4291493684 164041
2.6229236 1.8039517 5.4098759 4292017964 168137
2.6751339 1.8555185 5.569211 4291231544 172233
2.9236948 2.0453317 6.1440744 4288348004 176329
2.839745 2.0038028 6.0243378 4289003354 180425
2.8409717 2.0221765 6.0845585 4288741214 184521
2.7983415 2.0093818 6.0510359 4289003354 188617
2.7328675 1.9798106 5.9668093 4289462099 192713
2.5857801 1.8900545 5.7008734 4290838334 196809
2.7120807 2.0003128 6.0382605 4289199959 200905
2.5659647 1.9098276 5.7696443 4290576194 205001
2.6069849 1.9582421 5.9205575 4289855309 209097
2.4656248 1.8692877 5.6559939 4291297079 213193
2.5583117 1.957769 5.9282537 4289920844 217289
2.5339444 1.9575021 5.9319806 4289986379 221385
2.4492123 1.9101512 5.7928414 4290707264 225481
2.3721745 1.8679441 5.6690831 4291362614 229577
2.4139364 1.9193738 5.8294888 4290641729 233673
2.4770122 1.9889309 6.0451474 4289593169 237769
2.4529297 1.9891919 6.0503616 4289593169 241865
2.4558966 2.0116138 6.1229563 4289265494 245961
2.4103603 1.994359 6.0747499 4289527634 250057
2.1324811 1.7825354 5.4333878 4292804384 254153
2.1750617 1.8369693 5.6032023 4292017964 258249
2.1704469 1.8522662 5.6537738 4291755824 262345
2.2489479 1.9395686 5.9243088 4290445124 266441
2.0445416 1.7821405 5.447114 4292869919 270537
2.2328999 1.9673659 6.0173082 4290117449 274633
2.0916858 1.8630862 5.7021375 4291690289 278729
2.2168124 1.9963559 6.1140099 4289658704 282825
2.0911779 1.9042569 5.8357525 4291100474 286921
2.0646644 1.9013575 5.8305955 4291166009 291017
2.10007 1.9560652 6.0021601 4290379589 295113
2.0967157 1.9755183 6.0656686 4290051914 299209
1.9545492 1.8631083 5.7240548 4291821359 303305
1.9945518 1.9237392 5.9139624 4290903869 307401
1.9618627 1.9148719 5.8902774 4291034939 311497
1.980123 1.9561216 6.0207467 4290445124 315593
1.8038234 1.8038234 5.5552869 4292738849 319689
1.8748764 1.8981668 5.8492599 4291362614 323785
1.8440065 1.8903966 5.8286572 4291493684 327881
1.7643248 1.8317512 5.6510754 4292411174 331977
1.7388837 1.8286326 5.6446323 4292476709 336073
1.7990599 1.9166455 5.9195762 4291166009 340169
1.7183555 1.8549136 5.7320828 4292083499 344265
1.7311671 1.8938271 5.855504 4291493684 348361
1.7024251 1.8877231 5.8397269 4291624754 352457
1.7065146 1.9183578 5.9376488 4291166009 356553
1.7077906 1.9466424 6.0283294 4290772799 360649
1.6544659 1.9126096 5.9259529 4291297079 364745
1.665749 1.9533603 6.0552945 4290707264 368841
1.5192162 1.8075346 5.6060405 4292869919 372937
1.4765956 1.7828525 5.5321889 4293263129 377033
1.5680234 1.921713 5.9659739 4291231544 381129
1.4791662 1.8404891 5.7165456 4292411174 385225
1.4798832 1.86993 5.8107028 4292017964 389321
1.4371843 1.8445753 5.73457 4292411174 393417
1.4426092 1.8811624 5.8509893 4291886894 397513
1.4098114 1.8682866 5.8135381 4292083499 401609
1.4995224 2.0200179 6.2884412 4289855309 405705
1.4348506 1.9653835 6.1210327 4290641729 409801
1.3736221 1.9136786 5.962543 4291428149 413897
1.3338511 1.890589 5.8930531 4291821359 417993
1.2710074 1.8334001 5.7171631 4292673314 422089
1.2123774 1.780338 5.5539522 4293459734 426185
1.3289577 1.9873403 6.2021737 4290379589 430281
1.2878013 1.9617908 6.1248202 4290772799 434377
1.2306697 1.9104683 5.9668908 4291559219 438473
1.2428586 1.966854 6.1453094 4290707264 442569
1.1616564 1.8747524 5.8596911 4292083499 446665
1.1881816 1.9562991 6.1167865 4290903869 450761
1.1296347 1.8982521 5.9374061 4291755824 454857
1.1308327 1.9402709 6.0709386 4291166009 458953
1.1002156 1.9283348 6.0356283 4291362614 463049
1.0437527 1.8695791 5.8536777 4292214569 467145
1.0358852 1.8971831 5.9420509 4291821359 471241
1.0013921 1.8761715 5.8781114 4292149034 475337
1.0137451 1.9440051 6.0925193 4291166009 479433
0.97948563 1.9235681 6.0303001 4291493684 483529
0.96123832 1.9343437 6.0658927 4291297079 487625
0.89524573 1.8471526 5.7941499 4292607779 491721
0.91457182 1.9360416 6.0746837 4291297079 495817
0.915133 1.988889 6.2422013 4290510659 499913
0.82200342 1.8354323 5.7621269 4292804384 504009
0.83821148 1.9243447 6.0428395 4291493684 508105
0.7911129 1.8688608 5.8700953 4292345639 512201
0.79187524 1.9265025 6.0526295 4291493684 516297
0.77754414 1.9498415 6.1274033 4291166009 520393
0.74797243 1.9352303 6.0829062 4291362614 524489
0.71221459 1.9031308 5.9833608 4291821359 528585
0.68552196 1.8938997 5.9556336 4292017964 532681
0.66347557 1.8973074 5.9675984 4291952429 536777
0.63646096 1.8862388 5.9339786 4292083499 540873
0.61343682 1.8866075 5.9362855 4292083499 544969
0.55304343 1.7675701 5.5627875 4293852944 549065
0.54776615 1.8221608 5.7356372 4293066524 553161
0.5361076 1.8592668 5.8534555 4292542244 557257
0.51254642 1.8565571 5.8458977 4292607779 561353
0.50878531 1.9286513 6.0738697 4291493684 565449
0.48564979 1.9307541 6.081409 4291493684 569545
0.45899394 1.9183593 6.0432334 4291690289 573641
0.41455102 1.8262653 5.753912 4293066524 577737
0.40256336 1.8747951 5.907589 4292345639 581833
0.39916357 1.971626 6.213479 4290903869 585929
0.37248817 1.9585668 6.1730413 4291100474 590025
0.33807203 1.900198 5.9897246 4291952429 594121
0.33039519 1.994608 6.2879567 4290576194 598217
0.29640797 1.9325799 6.0929861 4291493684 602313
0.27135509 1.9230816 6.0635643 4291624754 606409
0.24038461 1.8658423 5.8835511 4292476709 610505
0.21257682 1.8236854 5.7510304 4293132059 614601
0.19808966 1.8993303 5.9899645 4292017964 618697
0.17774221 1.9314654 6.0916581 4291493684 622793
0.14484608 1.8161471 5.7282414 4293197594 626889
0.13129444 1.945545 6.1366391 4291297079 630985
0.10619194 1.923254 6.0665512 4291624754 635081
0.08124651 1.891883 5.9677715 4292083499 639177
0.057960305 1.8895059 5.9604039 4292149034 643273
0.033208307 1.804318 5.6917639 4293394199 647369
0.011840728 1.9300386 6.088397 4291559219 651465
-0.011944545 1.9469608 6.1417789 4291297079 655561
-0.033352908 1.8121747 5.716548 4293263129 659657
-0.058052998 1.8925277 5.9699364 4292083499 663753
