# .PCD v0.7 - Point Cloud Data file format
VERSION 0.7
FIELDS x y z rgba label
SIZE 4 4 4 4 4
TYPE F F F U U
COUNT 1 1 1 1 1
WIDTH 974
HEIGHT 1
VIEWPOINT 0 0 0 1 0 0 0
POINTS 974
DATA ascii
1.7405323 1.3280839 2.3159685 4294938624 221384
1.8288887 1.4088567 2.4673731 4294940928 225480
1.6794705 1.3062549 2.2970064 4294937856 229576
1.7865431 1.40309 2.4770794 4294940672 233672
1.7322659 1.3738661 2.4350088 4294939904 237768
1.8915316 1.5151074 2.6957712 4294943744 241864
1.8727386 1.5151303 2.7061706 4294943744 245960
2.17646 1.7787312 3.1890655 4294950912 250056
2.0642297 1.7043128 3.0671346 4294948864 254152
2.1756482 1.814919 3.2783399 4294951936 258248
2.1084285 1.7772617 3.2221036 4294950912 262344
2.1021085 1.7906849 3.2582247 4294951168 266440
2.0818291 1.7923769 3.2729042 4294951168 270536
2.1677918 1.8865649 3.4563818 4294953728 274632
2.002337 1.7616187 3.2381122 4294950400 278728
1.9418263 1.7272599 3.1853108 4294949376 282824
2.022306 1.8189456 3.365211 4294951936 286920
1.9646351 1.7870409 3.3167295 4294950912 291016
1.9131851 1.7601304 3.2770646 4294950144 295112
1.9564397 1.820733 3.4004264 4294951936 299208
1.9024856 1.7912291 3.3556006 4294950912 303304
1.8872311 1.7978947 3.3783462 4294951168 307400
1.8333033 1.7674361 3.3311286 4294950400 311496
1.7964981 1.7529465 3.3136721 4294949888 315592
1.8165754 1.7942861 3.4012644 4294950912 319688
1.8188109 1.8188109 3.4570704 4294951680 323784
1.751202 1.7732297 3.3794303 4294950400 327880
1.6871383 1.7301227 3.305944 4294949120 331976
1.6468735 1.7106235 3.2771609 4294948608 336072
1.579725 1.6623251 3.1927896 4294947328 340168
1.4660928 1.5631851 3.0099916 4294944512 344264
1.2819694 1.3852153 2.6739974 4294939648 348360
1.2946333 1.4179317 2.743938 4294940416 352456
1.285889 1.4277802 2.7697606 4294940672 356552
1.3069942 1.4715109 2.8614945 4294941952 360648
1.2854471 1.46778 2.8610516 4294941696 364744
1.2442077 1.4411327 2.815721 4294941184 368840
1.266402 1.4882535 2.9145169 4294942464 372936
1.2390521 1.4776843 2.900429 4294941952 377032
1.2561147 1.5205599 2.9913144 4294943232 381128
1.241859 1.5262542 3.008714 4294943232 385224
1.2574116 1.5693276 3.0998633 4294944512 389320
1.2658718 1.6047665 3.1761646 4294945536 393416
1.2595965 1.6223602 3.2172742 4294945792 397512
1.2632729 1.6535523 3.2854569 4294946816 401608
1.2418811 1.6524204 3.2894473 4294946816 405704
1.2412578 1.6793487 3.3493097 4294947328 409800
1.1892456 1.6364833 3.2698078 4294946304 413896
1.0081099 1.4113539 2.8250699 4294940160 417992
1.0404975 1.4824789 2.9727063 4294941952 422088
1.0053459 1.4582045 2.9291377 4294941440 426184
0.9938491 1.467979 2.9538665 4294941696 430280
0.98550069 1.4828562 2.988874 4294941952 434376
0.96787941 1.4840817 2.9963431 4294941952 438472
0.99823326 1.5603452 3.1554928 4294944000 442568
0.99685192 1.5890411 3.2182076 4294944768 446664
0.99161363 1.6126242 3.2706249 4294945536 450760
0.96778578 1.6063249 3.262404 4294945280 454856
0.94107866 1.5948807 3.2436016 4294945024 458952
0.92592484 1.6029452 3.2646959 4294945280 463048
0.88348764 1.5630935 3.1881764 4294944000 467144
0.89445877 1.6180658 3.3050227 4294945536 471240
0.85464871 1.5815912 3.2350495 4294944512 475336
0.86493635 1.6382912 3.3555589 4294946048 479432
0.82496566 1.6002346 3.2815742 4294945024 483528
0.80614692 1.6023414 3.2897778 4294945024 487624
0.78013313 1.5898916 3.2679851 4294944768 491720
0.76587749 1.6013801 3.2953091 4294945024 495816
0.75731254 1.6256976 3.3490276 4294945792 499912
0.75008255 1.6542916 3.4115863 4294946560 504008
0.72099644 1.6349356 3.3751905 4294946048 508104
0.7257809 1.6934887 3.4996233 4294947584 512200
0.6991725 1.680101 3.4753916 4294947072 516296
0.71197259 1.7635013 3.651417 4294949376 520392
0.69152677 1.7672352 3.6625531 4294949376 524488
0.66027063 1.7426815 3.6149125 4294948864 528584
0.63872564 1.7429632 3.6186459 4294948864 532680
0.62020415 1.7518047 3.6400681 4294949120 536776
0.59120822 1.7306277 3.5989957 4294948352 540872
0.57091862 1.7342999 3.6094711 4294948608 544968
0.55705434 1.758544 3.6627059 4294949120 549064
0.53008109 1.741695 3.6300459 4294948864 553160
0.51755649 1.7729063 3.6973813 4294949632 557256
0.51360905 1.8375791 3.834527 4294951424 561352
0.48284301 1.8078541 3.7746384 4294950400 565448
0.4727008 1.8562152 3.8777111 4294951936 569544
0.44887948 1.8530666 3.8731306 4294951680 573640
0.42552736 1.851619 3.8720024 4294951680 577736
0.40911508 1.8819294 3.9372141 4294952448 581832
0.38525888 1.8795964 3.9340594 4294952448 585928
0.37914729 1.9691198 4.1232319 4294954752 590024
0.38054889 2.1127026 4.4258595 4294958592 594120
0.35029203 2.0887783 4.3775644 4294958080 598216
0.32369572 2.0846004 4.3705001 4294957824 602312
0.28762841 2.0133989 4.2227316 4294956032 606408
0.27047426 2.0736358 4.3504949 4294957568 610504
0.26297686 2.2283828 4.6765504 4294961920 614600
0.23584831 2.2336223 4.6888065 4294961920 618696
0.2060269 2.2113554 4.6431746 4294961408 622792
0.18341877 2.2715709 4.770607 4294962944 626888
0.15344298 2.2458472 4.7174311 4294962176 630984
0.12722816 2.2759702 4.7814202 4294963200 635080
0.09731286 2.2381959 4.7026258 4294962176 639176
0.07007049 2.2562699 4.7410269 4294962688 643272
0.041898519 2.2485538 4.7250967 4294962432 647368
0.01408366 2.2674694 4.7649884 4294962944 651464
-0.013886164 2.2356722 4.6981683 4294961920 655560
-0.042763233 2.29496 4.8226147 4294963712 659656
-0.069376595 2.2339263 4.694077 4294961920 663752
-0.098359033 2.2622578 4.7531819 4294962688 667848
-0.12573898 2.2493308 4.7254553 4294962432 671944
-0.1535604 2.2475657 4.7210412 4294962432 676040
-0.18216984 2.2561033 4.7381234 4294962688 680136
-0.21267164 2.2826755 4.7929254 4294963200 684232
-0.23965891 2.2697108 4.7645636 4294962944 688328
-0.26855376 2.2756398 4.7757254 4294963200 692424
-0.29602557 2.2695293 4.7614803 4294962944 696520
-0.32432604 2.2702823 4.761497 4294962944 700616
-0.34770775 2.239238 4.6947079 4294962176 704712
-0.38097769 2.2717559 4.7610402 4294962944 708808
-0.40638816 2.256155 4.7263751 4294962688 712904
-0.43570927 2.2628772 4.7383442 4294962688 717000
-0.47151741 2.3004334 4.8148861 4294963712 721096
-0.49648258 2.2838199 4.7780156 4294963456 725192
-0.51570404 2.2440095 4.6925473 4294962176 729288
-0.54953164 2.2685792 4.7416019 4294962944 733384
-0.55860662 2.193553 4.5824237 4294960896 737480
-0.59263736 2.2189445 4.6329589 4294961664 741576
-0.64623845 2.3120975 4.824718 4294964224 745672
-0.68761259 2.3554387 4.9122477 4294965248 749768
-0.70655721 2.3215451 4.8385715 4294964480 753864
-0.74722159 2.358876 4.9130812 4294965504 757960
-0.76851714 2.334552 4.8587317 4294964736 762056
-0.77280301 2.2622051 4.7044587 4294962944 766152
-0.82385325 2.3270242 4.8353143 4294964736 770248
-0.8607955 2.3489504 4.8767638 4294965248 774344
-0.86320603 2.2782979 4.7259626 4294963200 778440
-0.91750938 2.3447461 4.8594313 4294965248 782536
-0.93886304 2.3254917 4.8150458 4294964736 786632
-0.94797313 2.2779653 4.71211 4294963456 790728
-1.0278379 2.3982882 4.9561038 4294966528 794824
-1.0053171 2.2796628 4.7061768 4294963456 798920
-1.0330373 2.2783427 4.698544 4294963456 803016
-0.99094516 2.127229 4.3822103 4294959360 807112
-1.0891707 2.2773569 4.6863294 4294963456 811208
-1.0978951 2.2374825 4.5990934 4294962432 815304
-1.1770563 2.339581 4.8034091 4294964992 819400
-1.1925967 2.3133502 4.7439485 4294964480 823496
-1.1682169 2.2127402 4.5321493 4294961664 827592
-1.2481427 2.3097813 4.7245183 4294964224 831688
-1.3219662 2.3914218 4.8846612 4294966528 835784
-1.2809243 2.2662506 4.6223764 4294963200 839880
-1.3275784 2.2982807 4.6808763 4294963968 843976
-1.391587 2.3583739 4.7963619 4294965760 848072
-1.3689939 2.2722476 4.6148753 4294963456 852168
-1.4592123 2.3730624 4.8128986 4294966272 856264
-1.5315392 2.4413645 4.944376 4294508294 860360
-1.3899968 2.1727135 4.393888 4294960640 864456
-1.463358 2.2438157 4.5302367 4294962688 868552
-1.4931228 2.2466614 4.5284147 4294962688 872648
-1.5454426 2.2827179 4.5932837 4294963712 876744
-1.5898154 2.3059483 4.6320252 4294964480 880840
-1.5653794 2.2303193 4.4722962 4294962432 884936
-1.6047651 2.246671 4.4971023 4294962944 889032
-1.6903062 2.3259768 4.6474638 4294964992 893128
-1.6664364 2.2545905 4.4965777 4294963200 897224
-1.8064016 2.4035592 4.7847276 4294835969 901320
-1.8161374 2.3772206 4.7233195 4294966528 905416
-1.8126705 2.3347197 4.6299415 4294965248 909512
-1.8101597 2.2947693 4.5418229 4294964224 913608
-1.7644597 2.2021554 4.3498759 4294961920 917704
-1.8470709 2.2700644 4.4749913 4294963712 921800
-1.8773359 2.2725644 4.4706917 4294963712 925896
-1.9669017 2.3457124 4.6042123 4294965760 929992
-1.8575581 2.1829698 4.2750125 4294961408 934088
-2.1278551 2.4646378 4.8154712 4294115084 938184
-2.0003681 2.2841082 4.4522691 4294964224 942280
-2.1522315 2.4231417 4.7120318 4294508294 946376
-1.9755619 2.1935549 4.2552924 4294961664 950472
-2.0368536 2.2308395 4.3170528 4294962688 954568
-2.132699 2.3044598 4.4484925 4294964736 958664
-2.082685 2.2206113 4.2758989 4294962432 962760
-2.1905575 2.3050964 4.4273458 4294964992 966856
-2.3223886 2.4122877 4.621388 4294573829 970952
-2.3413937 2.401047 4.587956 4294704899 975048
-2.2541668 2.2825212 4.3500409 4294964224 979144
-2.2772069 2.2772069 4.3283577 4294964224 983240
-2.4230971 2.3933661 4.5368853 4294704899 987336
-2.3453438 2.2884872 4.3260279 4294964480 991432
-2.50139 2.4115198 4.5450482 4294508294 995528
-2.4843161 2.3667154 4.4471922 4294966784 999624
-2.5922654 2.4406707 4.5722327 4294180619 1003720
-2.4730303 2.3014905 4.2982965 4294964992 1007816
-2.6065605 2.3980355 4.464736 4294639364 1011912
-2.5407555 2.3110826 4.2893453 4294965504 1016008
-2.5868878 2.3267539 4.3047013 4294965760 1020104
-2.715534 2.4154749 4.4544764 4294377224 1024200
-2.4681964 2.1714733 3.9914849 4294961664 1028296
-2.3269403 2.0250669 3.7101319 4294957568 1032392
-2.3546641 2.0272777 3.7018361 4294957824 1036488
-2.1611702 1.8409969 3.3497694 4294952704 1040584
-2.0189409 1.7018297 3.0853484 4294948864 1044680
-1.6735369 1.3960593 2.5217419 4294940416 1048776
-1.4324366 1.1826783 2.1283848 4294934528 1052872
-1.1064055 0.90421975 1.6211646 4294926592 1056968
-0.93921226 0.75986522 1.3571935 4294726144 1061064
-1.0065557 0.8062461 1.4345222 4294924032 1065160
-0.99490738 0.78906447 1.3985198 4294923520 1069256
-1.0306776 0.80945897 1.4290559 4294924032 1073352
-0.94782001 0.73719335 1.2963303 4294660096 1077448
-0.87087357 0.67086434 1.1749048 4294264832 1081544
-0.6820305 0.51072985 0.8829034 4293408512 1093832
-0.75524402 0.56034231 0.96438164 4293737728 1097928
-0.95965576 0.7055003 1.2087759 4294462464 1102024
-0.96893603 0.70587647 1.2039528 4294462464 1106120
-1.0081068 0.727826 1.235718 4294594304 1110216
-1.0374231 0.74233389 1.2542785 4294725888 1114312
-1.0483686 0.7435565 1.2501584 4294725888 1118408
-1.0333812 0.72652566 1.2154393 4294594304 1122504
-1.0643325 0.74180752 1.2347465 4294725888 1126600
-1.0560732 0.72973293 1.208457 4294659840 1130696
-1.0559633 0.7234472 1.1918752 4294594304 1134792
-1.0629852 0.72211236 1.1834801 4294594304 1138888
-1.0700365 0.72081959 1.1749324 4294594304 1142984
-1.0461799 0.69890022 1.1328262 4294462464 1147080
-1.069068 0.70831251 1.1416988 4294528256 1151176
-1.0569295 0.69455361 1.1134273 4294462464 1155272
-1.0583643 0.68986499 1.0998074 4294462208 1159368
-1.0930394 0.70674437 1.1197616 4294528256 1163464
-1.0844599 0.69560975 1.0952419 4294462464 1167560
-1.1090609 0.70576602 1.1045213 4294528256 1171656
-1.0948005 0.69122702 1.0752237 4294462464 1175752
-1.097303 0.68741554 1.0625492 4294462208 1179848
-1.1103072 0.69019097 1.0598788 4294462464 1183944
-1.0954961 0.67576581 1.0307424 4294396416 1188040
-1.1339322 0.69415617 1.0513657 4294462464 1192136
-1.0999956 0.66829926 1.0050247 4294330624 1196232
-1.1305434 0.6817134 1.0178545 4294396672 1200328
-1.1258523 0.67383724 0.99879974 4294396416 1204424
-1.1498214 0.68310422 1.0050912 4294462208 1208520
-1.1476701 0.67683113 0.98845023 4294396672 1212616
-1.1453438 0.67054671 0.97189498 4294396416 1216712
-1.154054 0.67076784 0.96479988 4294396416 1220808
-1.2080039 0.69709182 0.99456453 4294528256 1224904
-1.1773317 0.67455661 0.95453882 4294396672 1229000
-1.1305662 0.64318436 0.90223217 4294264576 1233096
-1.1721797 0.6621787 0.9206928 4294330624 1237192
-1.1634003 0.65263915 0.89969051 4294264832 1241288
-1.1849294 0.66011637 0.90212518 4294330624 1245384
-1.2229769 0.67662978 0.91582787 4294462208 1249480
-1.2141933 0.66718471 0.89431548 4294396416 1253576
-1.1339226 0.61885267 0.82170671 4294132992 1257672
-1.2582104 0.68206018 0.89689541 4294462464 1261768
-1.1786257 0.63464463 0.82607299 4294199040 1265864
-1.1251527 0.60182589 0.77516836 4294001408 1269960
-1.1650145 0.61903411 0.78861076 4294132992 1274056
-1.1762236 0.62089181 0.7822023 4294132992 1278152
-1.2226783 0.64120913 0.79870749 4294264832 1282248
-1.2217226 0.63656098 0.7838425 4294264576 1286344
-1.3012161 0.67361993 0.81982553 4294462464 1290440
-1.4298899 0.73550248 0.8841244 4294791936 1294536
-1.3843529 0.70755816 0.83977216 4294660096 1298632
-1.4753674 0.74931908 0.87746274 4294857728 1302728
-1.4975019 0.7557925 0.87301022 4294923520 1306824
4.3354578 2.6270618 3.8292246 4291690289 102601
3.9718287 2.4430494 3.6130717 4293721874 110793
4.9076138 3.0416007 4.5304432 4287299444 114889
4.0382061 2.5219448 3.7830212 4292935454 118985
3.9623821 2.4936998 3.7668383 4293197594 123081
5.1788583 3.2846453 4.994278 4284743579 127177
3.6780601 2.3510737 3.5980515 4294770434 131273
3.5941162 2.3340278 3.6156731 4294966784 139465
3.4432559 2.254019 3.5131621 4294964480 143561
3.5515804 2.3437555 3.6757607 4294966784 147657
3.3558893 2.2326937 3.5224559 4294963712 151753
3.5116756 2.3555684 3.7366941 4294835969 155849
2.276124 1.5394531 2.4553142 4294944512 159945
2.3432803 1.5981369 2.5632644 4294946048 164041
2.1073725 1.4493743 2.3376312 4294941952 168137
2.1247921 1.4737918 2.389694 4294942464 172233
2.0937953 1.4647582 2.3873656 4294942208 176329
2.0451319 1.4431018 2.3641367 4294941696 180425
1.9415222 1.3819568 2.2754586 4294939904 184521
2.030957 1.4583524 2.4133062 4294941952 188617
1.9366001 1.4029592 2.3331451 4294940416 192713
1.8756577 1.3709965 2.291167 4294939392 196809
1.8371785 1.355023 2.2751741 4294939136 200905
1.9314036 1.4375287 2.4246814 4294941184 205001
1.8824757 1.4140255 2.3957665 4294940672 209097
1.8751589 1.4216321 2.419373 4294940672 213193
1.8180575 1.3912834 2.3781502 4294939904 217289
1.7703558 1.3676208 2.3478718 4294939136 221385
1.8530146 1.445174 2.491673 4294941440 225481
1.7429729 1.3724859 2.376411 4294939392 229577
1.8812972 1.4958607 2.6003466 4294942720 233673
2.2031162 1.7690046 3.0872524 4294950144 237769
2.1983621 1.7827514 3.1233356 4294950656 241865
2.2500803 1.8430306 3.241358 4294952192 245961
2.2727225 1.880476 3.3197927 4294953216 250057
2.1383445 1.7874366 3.1674144 4294950656 254153
2.4838986 2.0978005 3.7312307 4294959104 258249
2.0548735 1.7536354 3.1305723 4294949632 262345
2.107162 1.8172879 3.2559824 4294951424 266441
2.1433074 1.8682306 3.359278 4294952704 270537
2.1522651 1.89632 3.4216883 4294953472 274633
2.0872478 1.8591334 3.3656566 4294952448 278729
1.9890683 1.7912604 3.2533617 4294950400 282825
2.0437977 1.8611119 3.3911324 4294952448 286921
2.0007246 1.8424753 3.3678815 4294951936 291017
2.0083427 1.8706279 3.4301252 4294952704 295113
1.9772922 1.8629979 3.42676 4294952448 299209
1.9043621 1.8152691 3.3492215 4294951168 303305
1.9350942 1.8663926 3.4540002 4294952448 307401
1.8920221 1.8467042 3.4278531 4294951936 311497
1.7681652 1.7467328 3.2519479 4294949120 315593
1.8259616 1.8259616 3.4094658 4294951168 319689
1.8271934 1.8498914 3.4636436 4294951936 323785
1.8203834 1.8661792 3.5034652 4294952192 327881
1.7826879 1.8508161 3.483783 4294951936 331977
1.7461518 1.8362758 3.4653852 4294951424 336073
1.6071087 1.7121485 3.2394059 4294948096 340169
1.6684922 1.8010876 3.4162943 4294950400 344265
1.4262686 1.5602804 2.9669399 4294944000 348361
1.3574526 1.5052027 2.8692954 4294942464 352457
1.2662897 1.4234843 2.720155 4294940160 356553
1.3192549 1.5037661 2.8805039 4294942208 360649
1.2634196 1.460549 2.804388 4294941184 364745
1.283247 1.5048147 2.8961799 4294942208 368841
1.2738559 1.5156096 2.923727 4294942720 372937
1.2777104 1.5427171 2.9828055 4294943232 377033
1.2353376 1.5139853 2.9338396 4294942464 381129
1.238526 1.5410666 2.9929478 4294943232 385225
1.2438676 1.5717088 3.0587864 4294944000 389321
1.2290802 1.5774809 3.0761139 4294944256 393417
1.2398667 1.6167862 3.158926 4294945280 397513
1.2321628 1.6328663 3.1964898 4294945536 401609
1.2528143 1.6876754 3.3100526 4294947072 405705
1.2406994 1.6994454 3.339365 4294947328 409801
1.2313783 1.7155099 3.3771322 4294947840 413897
1.1730238 1.6626338 3.278955 4294946304 417993
1.0824724 1.5614426 3.0848467 4294943744 422089
1.0254691 1.505869 2.9802384 4294942208 426185
0.97556341 1.4588701 2.8921728 4294940928 430281
0.97378403 1.483428 2.9458287 4294941440 434377
1.0091959 1.5666566 3.1162913 4294943744 438473
0.99022067 1.5670482 3.1221762 4294943744 442569
0.95410669 1.5397959 3.0728159 4294942976 446665
1.0010325 1.6481646 3.2940819 4294945792 450761
0.95491958 1.6046587 3.2116077 4294944768 454857
0.94560724 1.6224629 3.2516866 4294945280 458953
0.90231711 1.5814805 3.1738029 4294944000 463049
0.87835389 1.5733153 3.1615653 4294943744 467145
0.87716478 1.6064928 3.2327988 4294944768 471241
0.87699944 1.643114 3.31111 4294945792 475337
0.84796226 1.6260923 3.2812901 4294945280 479433
0.82858557 1.6272223 3.2879651 4294945280 483529
0.80058932 1.6110625 3.2594881 4294944768 487625
0.79821467 1.6469493 3.3359311 4294945792 491721
0.7724635 1.635215 3.3158863 4294945536 495817
0.76651776 1.6658986 3.3818104 4294946304 499913
0.74274838 1.6584655 3.3703201 4294946048 504009
0.71953124 1.6518817 3.3604362 4294945792 508105
0.70710742 1.6704133 3.4015796 4294946304 512201
0.73519927 1.788619 3.6458817 4294949632 516297
0.70508784 1.7681433 3.6075978 4294948864 520393
0.6851896 1.7727922 3.6204481 4294949120 524489
0.64667326 1.7279958 3.5321479 4294947840 528585
0.6390726 1.7655735 3.6121154 4294948864 532681
0.61325985 1.753708 3.5908592 4294948608 536777
0.60705608 1.7990935 3.6867812 4294949632 540873
0.5864771 1.8036937 3.6991057 4294949888 544969
0.57854462 1.849074 3.7950404 4294951168 549065
0.54940617 1.8276165 3.7537303 4294950400 553161
0.52654648 1.8261081 3.7532556 4294950400 557257
0.50779527 1.8393474 3.7830033 4294950912 561353
0.49422163 1.8734448 3.8555381 4294951680 565449
0.47852084 1.9024122 3.9172704 4294952448 569545
0.46938163 1.9617745 4.041585 4294953984 573641
0.44636247 1.9664077 4.0531135 4294954240 577737
0.42061451 1.9588618 4.0394335 4294953984 581833
0.41879845 2.0686104 4.2676201 4294956800 585929
0.39759734 2.0905924 4.3147492 4294957568 590025
0.37090623 2.084749 4.3043537 4294957312 594121
0.34536353 2.0849724 4.3063703 4294957312 598217
0.32234624 2.1016974 4.342371 4294957824 602313
0.30235174 2.1427536 4.4285698 4294958848 606409
0.28538138 2.2151031 4.5793996 4294960640 610505
0.26156679 2.2439675 4.6402707 4294961408 614601
0.23576613 2.2605813 4.6758728 4294961920 618697
0.2097169 2.2789237 4.7149343 4294962432 622793
0.18155216 2.2763846 4.7106619 4294962432 626889
0.15409462 2.283402 4.726027 4294962688 630985
0.12487962 2.2617087 4.6818242 4294961920 635081
0.097877294 2.2791426 4.7184753 4294962432 639177
0.069673151 2.2713447 4.7027512 4294962176 643273
0.042204443 2.293108 4.7480946 4294962688 647369
0.013929474 2.2705042 4.7014313 4294962176 651465
-0.013945482 2.2731135 4.7068343 4294962176 655561
-0.042508591 2.3096335 4.7823119 4294963200 659657
-0.070073336 2.2843907 4.729763 4294962688 663753
-0.0980267 2.2826216 4.725678 4294962432 667849
-0.12622422 2.2860608 4.7322345 4294962688 671945
-0.15644227 2.3181901 4.7980289 4294963456 676041
-0.18411851 2.3085628 4.7772503 4294963200 680137
-0.20987695 2.280663 4.718533 4294962432 684233
-0.23540334 2.2571027 4.6686778 4294961920 688329
-0.26592538 2.2813599 4.7175937 4294962432 692425
-0.29647177 2.3011856 4.7573624 4294962944 696521
-0.32222635 2.2836041 4.7196751 4294962688 700617
-0.3474139 2.2651386 4.6800609 4294962176 704713
-0.37905753 2.2883842 4.7265038 4294962688 708809
-0.40771079 2.2916157 4.7314687 4294962688 712905
-0.43891904 2.3078647 4.7631745 4294963200 717001
-0.45521569 2.2484896 4.6387172 4294961664 721097
-0.47751734 2.2238665 4.5859084 4294961152 725193
-0.53431374 2.3538685 4.8517389 4294964480 729289
-0.54710966 2.2866378 4.7108579 4294962688 733385
-0.59932524 2.3826833 4.9061999 4294965248 737481
-0.6018852 2.281565 4.695447 4294962688 741577
-0.64418209 2.3333707 4.7990661 4294963968 745673
-0.65946603 2.2870843 4.7007141 4294962688 749769
-0.69814116 2.3223879 4.7699385 4294963712 753865
-0.70264459 2.2457073 4.6090903 4294961664 757961
-0.71486151 2.1985364 4.5088692 4294960384 762057
-0.74260801 2.2008202 4.5100169 4294960384 766153
-0.80984277 2.3158662 4.7419238 4294963456 770249
-0.82807863 2.2877426 4.6803999 4294962944 774345
-0.85373849 2.2813013 4.6631446 4294962688 778441
-0.89766711 2.3225355 4.7431498 4294963712 782537
-0.91459173 2.2935147 4.6795292 4294962944 786633
-0.94362742 2.2956905 4.6794853 4294963200 790729
-1.0435108 2.4651053 5.0198669 4294639364 794825
-1.0267426 2.3571696 4.7952094 4294964736 798921
-1.0445808 2.3324201 4.7399254 4294964224 803017
-1.1120186 2.4167871 4.9061303 4294966272 807113
-1.1058275 2.3409076 4.7468882 4294964480 811209
-1.1640718 2.401819 4.8649359 4294966016 815305
-1.1528229 2.3198781 4.6935577 4294963712 819401
-1.1405444 2.2398643 4.5258694 4294961664 823497
-1.1967119 2.2948711 4.6308179 4294963200 827593
-1.2385107 2.3204281 4.6759949 4294963968 831689
-1.2889482 2.3606579 4.7504301 4294964992 835785
-1.235585 2.2131906 4.4473901 4294961152 839881
-1.3723407 2.4052854 4.8270602 4294966272 843977
-1.3742154 2.3578641 4.7255535 4294964992 848073
-1.3872681 2.3311825 4.6656923 4294964224 852169
-1.3891718 2.2872224 4.5713263 4294963200 856265
-1.4232693 2.2969594 4.5838108 4294963456 860361
-1.4865582 2.3525145 4.6871338 4294964992 864457
-1.5461738 2.4002507 4.7744226 4294966272 868553
-1.4749756 2.2469254 4.4620013 4294962176 872649
-1.5373126 2.2989171 4.5575442 4294963456 876745
-1.6020569 2.3525701 4.6559291 4294964992 880841
-1.5975657 2.3044531 4.5527673 4294963712 884937
-1.5797369 2.2391052 4.4158406 4294961920 889033
-1.7637492 2.4571891 4.837193 4294573829 893129
-1.7015216 2.3306556 4.5796766 4294964480 897225
-1.6579579 2.2334476 4.3804803 4294961920 901321
-1.8074969 2.3953009 4.6890273 4294966272 905417
-1.8203844 2.3737812 4.6379657 4294965760 909513
-1.7335759 2.2249832 4.3387542 4294961664 913609
-1.9601885 2.4768274 4.8202858 4294311689 917705
-1.8261956 2.2722893 4.413075 4294962944 921801
-1.9474529 2.386728 4.6250629 4294966016 925897
-2.0543649 2.4804554 4.7958999 4294246154 929993
-2.0184717 2.4015393 4.6327534 4294966528 934089
-1.9704263 2.3106437 4.4470859 4294964224 938185
-2.087147 2.412801 4.6327996 4294966784 942281
-2.0813909 2.3724945 4.5445762 4294965760 946377
-2.1669149 2.4359114 4.6548152 4294704899 950473
-2.1920948 2.4306901 4.6335077 4294704899 954569
-2.2085042 2.4160147 4.5941553 4294835969 958665
-2.2427676 2.4210007 4.5921426 4294835969 962761
-2.2272975 2.3728726 4.4895039 4294966016 966857
-2.2244828 2.3392947 4.4146729 4294964992 970953
-2.3674457 2.4579215 4.6265349 4294377224 975049
-2.2672465 2.3242841 4.3634868 4294964736 979145
-2.3089886 2.3376718 4.3769388 4294965248 983241
-2.4185345 2.4185345 4.5159278 4294770434 987337
-2.3582735 2.3296885 4.3372545 4294964992 991433
-2.3212128 2.2656147 4.2054348 4294963200 995529
-2.4912624 2.4028153 4.4467196 4294901504 999625
-2.5214128 2.4034522 4.4344354 4294901504 1003721
-2.533448 2.387006 4.3906097 4294966528 1007817
-2.4554539 2.28708 4.1937637 4294963968 1011913
-2.6422136 2.4332249 4.4477201 4294508294 1016009
-2.5679443 2.3384073 4.2608123 4294965504 1020105
-2.6434352 2.3805523 4.3236585 4294966528 1024201
-2.339149 2.0835042 3.7718432 4294958592 1028297
-2.2708445 2.000798 3.6102068 4294956288 1032393
-1.7030553 1.4844813 2.669256 4294942208 1036489
-1.7568704 1.5151845 2.7147124 4294942976 1040585
-1.5599148 1.3312361 2.3765094 4294938112 1044681
-1.6929057 1.4297597 2.5430272 4294940672 1048777
-1.1966417 1.0002697 1.7725209 4294928896 1052873
-1.1018175 0.91165614 1.6094378 4294926592 1056969
-1.0276486 0.84174234 1.4803814 4294924800 1061065
-1.1354293 0.920771 1.6131676 4294926848 1065161
-1.1260371 0.90415788 1.577929 4294926336 1069257
-0.96535355 0.76757383 1.3343208 4294726144 1073353
-0.84012258 0.66154581 1.1454432 4294198784 1077449
-0.73950708 0.56064957 0.9541291 4293671936 1093833
-0.83783901 0.62934452 1.0662909 4294066944 1097929
-0.96711493 0.71981615 1.2141147 4294528256 1102025
-1.020908 0.75297743 1.2642994 4294725888 1106121
-1.0295136 0.75251442 1.257579 4294725888 1110217
-1.0358289 0.75040048 1.247929 4294660096 1114313
-1.0596044 0.76086128 1.259086 4294726144 1118409
-1.0647438 0.75787437 1.2478766 4294725888 1122505
-1.0448408 0.73726863 1.2078177 4294659840 1126601
-1.081924 0.75688243 1.23362 4294725888 1130697
-1.0699393 0.74212807 1.2033308 4294660096 1134793
-1.0831834 0.74497426 1.2015357 4294660096 1138889
-1.0793923 0.73615462 1.1807241 4294659840 1142985
-1.0988398 0.74319869 1.1853471 4294660096 1147081
-1.0834355 0.726749 1.1528592 4294594048 1151177
-1.0889556 0.72448885 1.143005 4294594048 1155273
-1.1110137 0.73317903 1.14986 4294659840 1159369
-1.1167833 0.73106694 1.1394565 4294594304 1163465
-1.0903499 0.70807582 1.0968896 4294528256 1167561
-1.1291462 0.72747368 1.1201838 4294594304 1171657
-1.0565401 0.67535704 1.0335573 4294330624 1175753
-1.1020379 0.69895792 1.0627601 4294462464 1179849
-1.0952765 0.68930531 1.0412246 4294396672 1183945
-1.1827075 0.73862582 1.1079692 4294660096 1188041
-1.0960047 0.67927289 1.0117723 4294330880 1192137
-1.1372129 0.69949323 1.0344937 4294462464 1196233
-1.1164664 0.68158811 1.0007744 4294396416 1200329
-1.1921997 0.72241098 1.0529915 4294594304 1204425
-1.1451403 0.68877441 0.99656034 4294396672 1208521
-1.1152884 0.66590476 0.95628017 4294330624 1212617
-1.1837225 0.70162463 0.99996251 4294528256 1216713
-1.1689303 0.68785429 0.97263521 4294396672 1220809
-1.1623167 0.67905957 0.95241743 4294396416 1224905
-1.2165649 0.7056942 0.98142272 4294528256 1229001
-1.1671994 0.67227381 0.92677861 4294330880 1233097
-1.1615095 0.66430193 0.90790278 4294330624 1237193
-1.2075784 0.68583727 0.92931294 4294462208 1241289
-1.216432 0.68608445 0.92114621 4294462208 1245385
-1.2005004 0.67244518 0.8941462 4294396416 1249481
-1.2429988 0.69149762 0.9107722 4294462464 1253577
-1.1880914 0.65647084 0.85645187 4294264832 1257673
-1.2888724 0.70736092 0.91367918 4294594048 1261769
-1.1900144 0.64873695 0.82941377 4294264576 1265865
-1.2813253 0.69387382 0.87757939 4294528256 1269961
-1.1932528 0.64191484 0.80294341 4294199040 1274057
-1.2518318 0.66901177 0.82752007 4294396416 1278153
-1.1607549 0.61629659 0.75369185 4294067200 1282249
-1.2672955 0.66850865 0.80813569 4294396416 1286345
-1.2107121 0.63455331 0.75794941 4294198784 1290441
-1.3310325 0.69315755 0.81765884 4294528256 1294537
-1.3884115 0.71844786 0.83646584 4294660096 1298633
-1.4636283 0.75259119 0.86445349 4294857728 1302729
-1.4698325 0.75104296 0.85086757 4294857728 1306825
4.6146426 2.9398301 4.3676624 4288806749 123082
3.586688 2.3207982 3.4941275 4294965760 131274
3.9341013 2.5657182 3.8875887 4292804384 135370
3.1911898 2.0977941 3.1978006 4294959360 139466
4.7100883 3.1211426 4.7861848 4287037304 143562
4.2850699 2.8624959 4.416748 4289789774 147658
3.3568299 2.2607222 3.5097401 4294963712 151754
3.6366413 2.4693244 3.8554747 4293918479 155850
2.4601121 1.6843091 2.644083 4294947840 159946
2.1707077 1.4986057 2.3653874 4294942720 164042
2.0724385 1.4428369 2.2900877 4294941184 168138
2.0622239 1.4479445 2.3108981 4294941184 172234
2.0413187 1.4455689 2.3191097 4294941184 176330
2.0026116 1.4304368 2.3066266 4294940672 180426
2.1267488 1.5323737 2.4835641 4294943488 184522
1.9798173 1.4390743 2.3440797 4294940928 188618
2.0690196 1.5172811 2.4837587 4294942976 192714
1.9208354 1.4212459 2.3379693 4294940416 196810
1.9115251 1.4271568 2.3590932 4294940672 200906
1.8502373 1.3940144 2.3149452 4294939648 205002
1.7975557 1.3668051 2.2799821 4294938880 209098
1.7121285 1.3139591 2.2015941 4294937344 213194
1.8976116 1.4699808 2.4738705 4294941696 217290
1.7739383 1.3872029 2.3447413 4294939392 221386
2.1409984 1.6902617 2.8692896 4294947584 225482
2.1013031 1.6749518 2.8553989 4294947072 229578
2.112932 1.7006525 2.9113126 4294947840 233674
2.0789008 1.6897469 2.9040194 4294947584 237770
2.158721 1.7720844 3.0573719 4294949632 241866
2.3244133 1.9272773 3.3379195 4294953984 245962
2.4394529 2.0431964 3.5521512 4294957056 250058
2.2366776 1.8925734 3.3026755 4294952960 254154
2.3674242 2.0239637 3.545114 4294956288 258250
2.2407703 1.935744 3.4030817 4294953984 262346
2.2587273 1.9719048 3.4792802 4294955008 266442
1.9593945 1.7288774 3.0614345 4294948352 270538
2.1214623 1.892115 3.362396 4294952704 274634
2.0347116 1.834576 3.2713251 4294951168 278730
2.0956931 1.9104384 3.4177151 4294953216 282826
1.9653143 1.8116025 3.2513561 4294950400 286922
2.0127282 1.876272 3.3781619 4294952192 291018
1.9096401 1.8005178 3.251992 4294950144 295114
1.9492881 1.8591477 3.3683548 4294951680 299210
1.9419614 1.8738225 3.4053781 4294951936 303306
1.9307295 1.8850317 3.436146 4294952448 307402
1.8772632 1.854781 3.3911471 4294951424 311498
1.7251427 1.7251427 3.1635091 4294948096 315594
1.8244034 1.8467888 3.3965495 4294951168 319690
1.8145126 1.8595936 3.430053 4294951680 323786
1.7519763 1.8180887 3.3626118 4294950400 327882
1.7431219 1.8319433 3.3971658 4294950656 331978
1.7054596 1.8154893 3.3754158 4294950400 336074
1.6834215 1.8154545 3.3840015 4294950400 340170
1.593181 1.7408931 3.2532179 4294948352 344266
1.4874473 1.6471732 3.0857613 4294945792 348362
1.3985653 1.5698183 2.9481056 4294943744 352458
1.3625498 1.5504878 2.918916 4294943232 356554
1.3277225 1.5319875 2.8910427 4294942720 360650
1.2873788 1.5065072 2.849725 4294941952 364746
1.2754173 1.5139846 2.8705976 4294942208 368842
1.2964385 1.561404 2.9673707 4294943232 372938
1.2544656 1.5332357 2.9205043 4294942464 377034
1.2734066 1.5797901 3.015945 4294943744 381130
1.2429047 1.5654906 2.9952676 4294943488 385226
1.2487648 1.5972571 3.0627251 4294944256 389322
1.2244473 1.5908173 3.0567431 4294944000 393418
1.2735429 1.6810765 3.2364857 4294946560 397514
1.2516869 1.6790922 3.2388854 4294946304 401610
1.2394438 1.6901506 3.2663941 4294946560 405706
1.2118423 1.6802856 3.253387 4294946304 409802
1.2623332 1.7802135 3.4531984 4294949120 413898
1.2764038 1.8313619 3.5588353 4294950400 417994
1.1697849 1.708093 3.3251932 4294947072 422090
1.00506 1.4940081 2.9134891 4294941440 426186
0.98205733 1.4866005 2.9040027 4294941184 430282
0.97054225 1.4966305 2.9285126 4294941440 434378
0.98655975 1.5503082 3.0385597 4294942720 438474
0.93039995 1.4904466 2.926003 4294941184 442570
0.99544787 1.6262267 3.1976867 4294944768 446666
1.0079502 1.679917 3.308465 4294946304 450762
0.98575741 1.6768038 3.3074431 4294946048 454858
0.96068555 1.6685591 3.2958281 4294945792 458954
0.92153746 1.6349858 3.2338386 4294945024 463050
0.86050588 1.5602579 3.0900831 4294942976 467146
0.8800801 1.6316092 3.2355449 4294945024 471242
0.86193144 1.6346976 3.2457762 4294945024 475338
0.83324891 1.6174831 3.215971 4294944512 479434
0.83492589 1.6597924 3.3044922 4294945536 483530
0.82525873 1.6810826 3.351243 4294946048 487626
0.78361815 1.6366708 3.2668672 4294945024 491722
0.78189045 1.6754795 3.3484385 4294946048 495818
0.76494521 1.6828794 3.3669062 4294946304 499914
0.7749595 1.7516208 3.508172 4294948096 504010
0.74521387 1.731835 3.472147 4294947584 508106
0.73573887 1.7593756 3.5309284 4294948096 512202
0.73236114 1.8035759 3.6231933 4294949376 516298
0.72722179 1.8460245 3.7120106 4294950400 520394
0.67415601 1.7656467 3.5536785 4294948352 524490
0.66454715 1.7975456 3.6211345 4294949120 528586
0.64004195 1.7899479 3.6089714 4294948864 532682
0.63027066 1.8244677 3.6816742 4294949888 536778
0.61468679 1.8440604 3.7242453 4294950400 540874
0.62175274 1.9356453 3.912286 4294952704 544970
0.57014644 1.8445914 3.731061 4294950400 549066
0.55255717 1.8606517 3.7662747 4294950912 553162
0.53532684 1.8793389 3.8067508 4294951168 557258
0.52434993 1.9226165 3.8970158 4294952448 561354
0.51438409 1.9737993 4.0033202 4294953728 565450
0.48832965 1.965229 3.9883754 4294953472 569546
0.45500189 1.9250079 3.9090252 4294952448 573642
0.48630255 2.1686466 4.4062123 4294958848 577738
0.45521197 2.1459992 4.3624716 4294958336 581834
0.43083927 2.1541963 4.381052 4294958592 585930
0.39238966 2.0885255 4.2492461 4294956800 590026
0.35908082 2.043046 4.1583209 4294955520 594122
0.35320392 2.1584685 4.3948312 4294958592 598218
0.3438637 2.2695005 4.6224504 4294961408 602314
0.31417704 2.2538788 4.5920529 4294961152 606410
0.29303911 2.3024502 4.6923423 4294962432 610506
0.26302376 2.2841537 4.6562548 4294961920 614602
0.23925096 2.3221416 4.7347922 4294962944 618698
0.20991699 2.309087 4.7091455 4294962432 622794
0.18540397 2.3532043 4.7999849 4294963712 626890
0.15342653 2.3013978 4.6950388 4294962432 630986
0.12615955 2.3129251 4.7191639 4294962688 635082
0.097791113 2.3050761 4.7036347 4294962432 639178
0.070572384 2.3288887 4.7525935 4294962944 643274
0.041512076 2.2831643 4.6595235 4294961920 647370
0.014002799 2.310462 4.7153549 4294962688 651466
-0.013869464 2.2884617 4.670455 4294961920 655562
-0.042328078 2.3280442 4.7511158 4294962944 659658
-0.070252389 2.3183289 4.7310438 4294962688 663754
-0.098463088 2.3209157 4.7359562 4294962944 667850
-0.12467165 2.2856469 4.6635075 4294961920 671946
-0.15565562 2.3348343 4.7632518 4294963200 676042
-0.1790956 2.2731364 4.6366653 4294961664 680138
-0.20959707 2.3055677 4.7019687 4294962432 684234
-0.23671296 2.2975082 4.6845651 4294962176 688330
-0.26849392 2.3316576 4.7530923 4294963200 692426
-0.28822508 2.2646258 4.6152573 4294961408 696522
-0.32251424 2.313689 4.7139101 4294962688 700618
-0.35039318 2.3125949 4.7102242 4294962688 704714
-0.37637192 2.3000505 4.683105 4294962432 708810
-0.40544373 2.3068349 4.6952248 4294962432 712906
-0.45268106 2.4094315 4.9021506 4294965248 717002
-0.46881571 2.3440785 4.767221 4294963456 721098
-0.48970476 2.3086083 4.6930294 4294962688 725194
-0.49438298 2.2046809 4.4794259 4294959872 729290
-0.52500218 2.221163 4.5104136 4294960384 733386
-0.55885524 2.2490516 4.5643849 4294961152 737482
-0.5778091 2.2171745 4.4969416 4294960128 741578
-0.60389489 2.2142813 4.4882011 4294960128 745674
-0.71522868 2.5109091 5.0860467 4294508294 749770
-0.70148814 2.3621538 4.7813997 4294963968 753866
-0.73002088 2.3618321 4.7772856 4294963968 757962
-0.72385049 2.2534969 4.5547209 4294961152 762058
-0.79436672 2.3831003 4.8128843 4294964736 766154
-0.80735898 2.3370917 4.7161212 4294963456 770250
-0.86662215 2.4236042 4.8865771 4294965760 774346
-0.8647061 2.3389592 4.7118058 4294963456 778442
-0.86208224 2.2578344 4.5442939 4294961408 782538
-0.9279896 2.3556659 4.7368045 4294963968 786634
-1.0154767 2.5008008 5.0238442 4294573829 790730
-0.94987863 2.2714489 4.5586195 4294961664 794826
-1.0149318 2.3586445 4.7288342 4294963968 798922
-1.0657874 2.4089715 4.8247242 4294965504 803018
-1.1377589 2.5030696 5.0078454 4294573829 807114
-1.088923 2.3334064 4.6633024 4294963456 811210
-1.1354809 2.3715742 4.7337666 4294964480 815306
-1.1967219 2.4377668 4.8596954 4294966272 819402
-1.1322485 2.2508554 4.4812436 4294961408 823498
-1.1778238 2.2863638 4.5458775 4294962176 827594
-1.2270119 2.3270917 4.6205602 4294963200 831690
-1.3034815 2.4165668 4.7921467 4294965760 835786
-1.3367152 2.4237144 4.8001542 4294966016 839882
-1.2601821 2.2358069 4.4222026 4294960896 843978
-1.4469429 2.5131114 4.9640336 4294377224 848074
-1.432778 2.4371996 4.8073001 4294966272 852170
-1.4520249 2.4200416 4.7660828 4294966016 856266
-1.4392952 2.3513236 4.6234612 4294963968 860362
-1.4788806 2.3690808 4.6509132 4294964480 864458
-1.5060942 2.3667195 4.6387024 4294964480 868554
-1.5383193 2.3721747 4.6417222 4294964736 872650
-1.5493274 2.3453119 4.5814543 4294963968 876746
-1.6418425 2.4405768 4.759408 4294966528 880842
-1.6201388 2.3656893 4.6053543 4294964480 884938
-1.7029858 2.4434142 4.74822 4294966784 889034
-1.6819779 2.37202 4.6011653 4294964736 893130
-1.8936411 2.6256368 5.0837865 4293132059 897226
-1.6769698 2.286777 4.4194374 4294962688 901322
-1.8280405 2.4522495 4.7302675 4294901504 905418
-1.8208069 2.403465 4.6272612 4294965760 909514
-1.9443165 2.5260804 4.8538437 4294115084 913610
-1.8410184 2.3547912 4.5152888 4294964480 917706
-1.9484024 2.4540946 4.6954417 4294835969 921802
-1.850731 2.2960196 4.3832841 4294962944 925898
-2.0535698 2.5099185 4.7808881 4294246154 929994
-1.9239219 2.3171322 4.403595 4294963456 934090
-2.0362055 2.4170785 4.5829124 4294966272 938186
-1.9787283 2.3155332 4.3800874 4294963456 942282
-2.1271386 2.4543908 4.6317272 4294770434 946378
-1.9197661 2.1845613 4.1126099 4294960128 950474
-2.1393685 2.4013319 4.5096817 4294966016 954570
-2.1026187 2.3284032 4.3619561 4294963968 958666
-2.2258549 2.4322257 4.5451155 4294966784 962762
-2.2165918 2.3904424 4.4557767 4294965760 966858
-2.294951 2.4430125 4.5421267 4294835969 970954
-2.1909416 2.3025818 4.2699203 4294963456 975050
-2.3102756 2.3974557 4.4341693 4294966016 979146
-2.2522221 2.3081779 4.2574749 4294963712 983242
-2.3655365 2.3945613 4.4039941 4294966016 987338
-2.4177907 2.4177907 4.4336638 4294966528 991434
-2.306277 2.278657 4.166131 4294962944 995530
-2.4477708 2.3898354 4.3563318 4294966016 999626
-2.6159494 2.5241618 4.5872679 4293918479 1003722
-2.3370669 2.2289944 4.0384336 4294961664 1007818
-2.7166331 2.5613971 4.6262484 4293525269 1011914
-2.3471818 2.188051 3.9395089 4294960640 1016010
-2.5060208 2.3100193 4.145885 4294963968 1020106
-2.3401356 2.1332726 3.8163588 4294959104 1024202
-2.448616 2.2077684 3.9367833 4294961152 1028298
-1.6849315 1.5027767 2.6705198 4294942208 1032394
-1.378148 1.216013 2.1532724 4294934528 1036490
-1.0686293 0.93293035 1.6460867 4294926848 1040586
-1.1221237 0.96937394 1.7041812 4294927872 1044682
-1.146337 0.98002905 1.7165895 4294928128 1048778
-1.0370281 0.87748528 1.5312744 4294925312 1052874
-0.93352932 0.78189003 1.3593366 4294791680 1056970
-1.1252825 0.93302321 1.6159357 4294926848 1061066
-1.016022 0.83404791 1.4389803 4294924288 1065162
-1.0644435 0.86518806 1.4869226 4294925056 1069258
-0.86078477 0.69282675 1.1860361 4294330624 1073354
-0.65345663 0.50619876 0.85189569 4293342464 1089738
-0.9435311 0.72410524 1.213269 4294462464 1093834
-0.93378788 0.71002305 1.1843971 4294396672 1097930
-0.9982807 0.75212932 1.2490101 4294660096 1102026
-1.0135926 0.75675464 1.2509171 4294660096 1106122
-1.0428705 0.7716307 1.2693431 4294726144 1110218
-1.0353789 0.75927788 1.2429227 4294660096 1114314
-1.0789975 0.78429335 1.2775201 4294857472 1118410
-1.0560124 0.76088232 1.2331849 4294725888 1122506
-1.0467253 0.74766088 1.2056279 4294659840 1126602
-1.0514796 0.74460995 1.1945692 4294594304 1130698
-1.0814763 0.75933444 1.2118866 4294725888 1134794
-1.0632721 0.74025273 1.174938 4294594304 1138890
-1.0715686 0.73978591 1.1676723 4294594304 1142986
-1.0501006 0.71894854 1.1286287 4294528256 1147082
-1.1027476 0.74877924 1.1691049 4294660096 1151178
-1.0897008 0.73388016 1.1393389 4294594048 1155274
-1.0714253 0.71572942 1.1043497 4294462464 1159370
-1.0679592 0.7076838 1.0852132 4294462464 1163466
-1.1205362 0.73660749 1.1228576 4294594304 1167562
-1.1195122 0.73011667 1.1062763 4294594048 1171658
-1.1678344 0.75565755 1.1376965 4294725888 1175754
-1.1106786 0.7130816 1.0666381 4294462464 1179850
-1.1238345 0.71595633 1.0636858 4294528256 1183946
-1.0746742 0.6793918 1.0023288 4294330624 1188042
-1.0915097 0.68478745 1.0031757 4294330624 1192138
-1.1313071 0.70439875 1.0245622 4294462464 1196234
-1.1647235 0.71977293 1.0393783 4294528256 1200330
-1.1520584 0.70665288 1.012978 4294462464 1204426
-1.1555514 0.70356447 1.0010929 4294462464 1208522
-1.1230049 0.67873925 0.95853955 4294330624 1212618
-1.160861 0.69651663 0.9761287 4294396672 1216714
-1.1291716 0.67261124 0.93505859 4294330624 1220810
-1.2477189 0.73789829 1.0174205 4294660096 1224906
-1.2032788 0.70655161 0.96577114 4294462464 1229002
-1.270829 0.74094272 1.0039715 4294660096 1233098
-1.1982155 0.69370371 0.93199563 4294396672 1237194
-1.2040634 0.6922316 0.92191958 4294396672 1241290
-1.1693952 0.66764778 0.8807056 4294264832 1245386
-1.2306358 0.69778317 0.91165954 4294462464 1249482
-1.2158525 0.68469507 0.88617396 4294396416 1253578
-1.1608429 0.64928502 0.83224624 4294199040 1257674
-1.2004092 0.66689396 0.84619105 4294330624 1261770
-1.1984404 0.66134673 0.83039868 4294264832 1265866
-1.1557385 0.63354433 0.78683871 4294132992 1269962
-1.2577878 0.68493396 0.84128255 4294396672 1274058
-1.1643754 0.62990803 0.76504034 4294132992 1278154
-1.1984284 0.64410645 0.77338302 4294198784 1282250
-1.175743 0.62782389 0.74511385 4294132992 1286346
-1.2906229 0.6847356 0.80269462 4294396672 1290442
-1.3241394 0.69802874 0.80796772 4294528256 1294538
-1.4080951 0.73757362 0.84240985 4294725888 1298634
-1.3936453 0.72539896 0.8173067 4294660096 1302730
-1.3583088 0.70257354 0.78068978 4294528256 1306826
3.580919 2.3089323 3.3741775 4294964736 123083
3.1316569 2.0349677 2.9944952 4294957056 127179
4.2631392 2.7919381 4.1356616 4290772799 131275
3.9193163 2.5870585 3.8569438 4292935454 135371
3.6044202 2.39816 3.5975862 4294901504 139467
2.7927938 1.8730786 2.8267169 4294952704 143563
3.6319935 2.4556394 3.7280672 4294377224 147659
3.9079535 2.6637886 4.0690603 4292214569 151755
3.3785255 2.3218672 3.5684342 4294964736 155851
2.9906211 2.0723391 3.2023437 4294957824 159947
2.5088718 1.7530611 2.7235544 4294949120 164043
2.3717179 1.6712105 2.6106358 4294946816 168139
2.0806448 1.4785858 2.3225207 4294941696 172235
2.0127883 1.4426423 2.2783089 4294940672 176331
1.9209348 1.3887278 2.2044532 4294939136 180427
1.9526725 1.4240013 2.271955 4294940160 184523
1.9146788 1.4085963 2.2586949 4294939648 188619
2.0206079 1.4997401 2.4168253 4294942208 192715
1.8889837 1.41462 2.2908757 4294939904 196811
1.948306 1.4722493 2.3957937 4294941440 200907
1.8222039 1.3895345 2.2720687 4294939136 205003
1.9164886 1.4749014 2.422533 4294941440 209099
1.8811629 1.4611822 2.4107039 4294940928 213195
1.9671588 1.5423263 2.5558052 4294943232 217291
2.0436571 1.6174915 2.6920617 4294945024 221387
2.2168009 1.7713193 2.9608145 4294949120 225483
2.1014624 1.6953826 2.8459556 4294947072 229579
2.447458 1.9937829 3.3609672 4294955008 233675
2.3881221 1.9646127 3.3253345 4294954240 237771
2.4400485 2.0273039 3.4448063 4294956032 241867
2.4812262 2.0822351 3.551769 4294957312 245963
2.4751015 2.0981824 3.5926013 4294957824 250059
2.5060396 2.146198 3.6886582 4294959104 254155
2.3282399 2.014591 3.4753664 4294955520 258251
2.2795017 1.9930723 3.4509151 4294955008 262347
2.2351427 1.9749675 3.4320328 4294954496 266443
1.9702425 1.7595214 3.0686529 4294948608 270539
2.0493095 1.8499172 3.2377713 4294950912 274635
2.0071061 1.8316213 3.2170188 4294950400 278731
2.1097345 1.9465507 3.4304066 4294953472 282827
2.0744898 1.9354179 3.4217939 4294953216 286923
2.0366933 1.9216259 3.4082482 4294952704 291019
1.9580703 1.8685585 3.324578 4294951424 295115
1.9908566 1.9218096 3.4299836 4294952704 299211
1.9035543 1.8590267 3.328156 4294951168 303307
1.8220911 1.8005278 3.2332196 4294949376 307403
1.8013388 1.8013388 3.2443771 4294949376 311499
1.8789532 1.9017284 3.4353418 4294952192 315595
1.8202558 1.8649246 3.3787594 4294951168 319691
1.8390946 1.9076324 3.4661851 4294952192 323787
1.786117 1.8759845 3.4184775 4294951424 327883
1.7644529 1.8768386 3.4292424 4294951424 331979
1.7330546 1.8672266 3.4205573 4294951168 336075
1.6633294 1.8155295 3.3343985 4294949632 340171
1.6344041 1.807586 3.3282099 4294949376 344267
1.5759176 1.7662969 3.2602944 4294948352 348363
1.5075563 1.7126659 3.169081 4294946816 352459
1.465559 1.6879196 3.1308901 4294946304 356555
1.2692579 1.4822801 2.7560768 4294940928 360651
1.3127781 1.5548507 2.8978844 4294942720 364747
1.315832 1.5808917 2.9533317 4294943488 368843
1.3096079 1.5963832 2.9891765 4294943744 372939
1.2923434 1.5986767 3.0003085 4294943744 377035
1.3093256 1.6440403 3.092397 4294945024 381131
1.277619 1.6287204 3.0703695 4294944512 385227
1.2632519 1.6353726 3.0896342 4294944768 389323
1.2185905 1.6023985 3.0338485 4294944000 393419
1.2445568 1.6627278 3.1547019 4294945536 397515
1.229652 1.6695275 3.173691 4294945536 401611
1.2394713 1.7106754 3.2580652 4294946560 405707
1.2194201 1.711287 3.2653024 4294946560 409803
1.3006494 1.8564826 3.5488455 4294950400 413899
1.3292562 1.9303111 3.6966345 4294952448 417995
1.2832768 1.8965241 3.6383784 4294951424 422091
1.1665095 1.7550187 3.3727872 4294947840 426187
1.0559465 1.6178262 3.1144567 4294944256 430283
1.0012313 1.5626695 3.013324 4294942720 434379
1.0066799 1.6011003 3.0925231 4294943744 438475
0.96216232 1.5600107 3.0180409 4294942720 442571
0.94479591 1.5621873 3.0270705 4294942720 446667
0.96142948 1.6218053 3.1475327 4294944256 450763
0.96380186 1.6593289 3.2253251 4294945280 454859
0.95269734 1.6747416 3.2602112 4294945536 458955
0.9387551 1.6857215 3.2864575 4294945792 463051
0.90535009 1.6614666 3.2434387 4294945280 467147
0.91166991 1.7106615 3.3437583 4294946560 471243
0.87391794 1.6775206 3.2830949 4294945536 475339
0.86083502 1.6912876 3.3141017 4294946048 479435
0.81262225 1.6350352 3.2077696 4294944512 483531
0.81896502 1.6884834 3.3169324 4294945792 487627
0.79258585 1.6754663 3.2955396 4294945536 491723
0.79348415 1.7209332 3.3891683 4294946560 495819
0.78493255 1.7477832 3.446213 4294947328 499915
0.76139498 1.7418214 3.4385138 4294947328 504011
0.79913479 1.8796551 3.7144854 4294950912 508107
0.728778 1.763854 3.4891591 4294947840 512203
0.71456152 1.7810713 3.5266714 4294948096 516299
0.70994598 1.824015 3.615144 4294949376 520395
0.68387824 1.8128202 3.5962784 4294949120 524491
0.68725479 1.8815008 3.7358742 4294950912 528587
0.65981781 1.8676199 3.711534 4294950400 532683
0.64877081 1.9007847 3.7806184 4294951424 536779
0.61118799 1.8557889 3.6941221 4294950144 540875
0.60117376 1.8942646 3.7736688 4294951168 544971
0.57233083 1.874103 3.7363267 4294950656 549067
0.56456119 1.9241166 3.8388288 4294951936 553163
0.55209225 1.9616895 3.9165282 4294952960 557259
0.53082037 1.9699334 3.935617 4294952960 561355
0.50728947 1.9701707 3.9386005 4294952960 565451
0.49575344 2.0192883 4.0392513 4294954240 569547
0.48947686 2.0959649 4.1950645 4294956288 573643
0.47545442 2.1459699 4.2975206 4294957568 577739
0.43824223 2.0910416 4.1897135 4294956288 581835
0.41464254 2.0983427 4.2064228 4294956288 585931
0.41579548 2.2399306 4.4923482 4294960128 590027
0.38652882 2.225873 4.4661069 4294959616 594123
0.36277384 2.2438233 4.5039625 4294960128 598219
0.34458008 2.301795 4.6220808 4294961664 602315
0.32365397 2.3500092 4.7204652 4294962944 606411
0.29050088 2.3101737 4.6417623 4294961920 610507
0.26437318 2.3237009 4.6701446 4294962176 614603
0.23873504 2.3452206 4.7144871 4294962688 618699
0.21074161 2.3462565 4.7175412 4294962688 622795
0.17953514 2.3063359 4.6381106 4294961664 626891
0.15373874 2.3340335 4.6945367 4294962432 630987
0.12569518 2.3323441 4.6917429 4294962432 635083
0.097728647 2.3315263 4.6905813 4294962432 639179
0.069301464 2.3146689 4.6570277 4294961920 643275
0.04174142 2.3236058 4.6752491 4294962176 647371
0.014041835 2.3449864 4.71839 4294962688 651467
-0.013849955 2.3129425 4.653914 4294961920 655563
-0.041757412 2.3244958 4.6770401 4294962176 659659
-0.068608582 2.2915268 4.6104665 4294961408 663755
-0.097355567 2.3226256 4.6726751 4294962176 667851
