# .PCD v0.7 - Point Cloud Data file format
VERSION 0.7
FIELDS x y z rgba label
SIZE 4 4 4 4 4
TYPE F F F U U
COUNT 1 1 1 1 1
WIDTH 977
HEIGHT 1
VIEWPOINT 0 0 0 1 0 0 0
POINTS 977
DATA ascii
-0.7843141 0.70830125 0.8512401 4293737728 1118430
-0.77561837 0.69433087 0.82938641 4293671936 1122526
-0.94289899 0.83677185 0.99336767 4294264832 1126622
-0.88770145 0.78102487 0.92140508 4294066944 1130718
-1.1251421 0.98150688 1.1506191 4294923520 1134814
-1.2939715 1.119258 1.3037254 4294926592 1138910
-1.3864326 1.1891996 1.3762187 4294928128 1143006
-1.4043591 1.1945794 1.3733742 4294928384 1147102
-1.4235744 1.2009579 1.3715338 4294928384 1151198
-1.4354239 1.2010689 1.3624305 4294928384 1155294
-1.4910214 1.2374874 1.3940047 4294929408 1159390
-1.5397712 1.2676831 1.4177071 4294929920 1163486
-1.7272105 1.4106699 1.5660074 4294933248 1167582
-1.6989758 1.3766404 1.5163321 4294932480 1171678
-1.6855134 1.3550205 1.4807447 4294931968 1175774
-1.7530318 1.3983328 1.5163752 4294932992 1179870
-1.6869098 1.3351989 1.4367143 4294931712 1183966
-1.4110917 1.1083287 1.1826364 4294926592 1188062
-1.6814318 1.3106217 1.3863285 4294931200 1192158
-1.6729032 1.2941327 1.3571236 4294930688 1196254
-1.5661167 1.2024492 1.2501854 4294928640 1200350
-1.4496833 1.1047772 1.138458 4294926592 1204446
2.8348267 2.7293448 3.3392148 4294961408 213215
3.0898175 3.0027804 3.6935027 4294704899 217311
3.1875725 3.1271446 3.8669105 4293656339 221407
3.1378348 3.1078079 3.8622806 4293852944 225503
3.1290498 3.1290498 3.9068534 4293721874 229599
2.9296594 2.9582415 3.7106378 4294966272 233695
2.8496814 2.9058328 3.6621139 4294965248 237791
2.7519479 2.8340955 3.5886285 4294963456 241887
2.5522974 2.6549025 3.3774664 4294959616 245983
2.8084331 2.9509931 3.7706687 4294966016 250079
2.5861046 2.7452495 3.5230086 4294961408 254175
2.9341726 3.1470141 4.055922 4293656339 258271
2.6282172 2.848382 3.6865969 4294963712 262367
2.7976105 3.0640495 3.9823332 4294377224 266463
2.8175604 3.1189039 4.0703797 4293918479 270559
2.4418056 2.7321825 3.5802085 4294961152 274655
2.7797656 3.144325 4.1368556 4293721874 278751
2.770335 3.1682835 4.1846685 4293525269 282847
2.5740099 2.9766483 3.9461839 4294966272 286943
2.5794868 3.0166879 4.0139589 4294835969 291039
2.3717344 2.805423 3.7463965 4294962432 295135
2.294817 2.7458215 3.6799414 4294961152 299231
2.4338336 2.9462194 3.9624827 4294965504 303327
2.4650536 3.019326 4.074985 4294901504 307423
2.5294607 3.1353195 4.2460814 4293918479 311519
2.3259659 2.91803 3.965225 4294964736 315615
2.251451 2.8592045 3.898308 4294963456 319711
2.21158 2.8434601 3.8889909 4294963200 323807
2.173631 2.8298213 3.8822634 4294962688 327903
2.1008825 2.7699533 3.8116837 4294961408 331999
2.0581791 2.7486651 3.7937353 4294960896 336095
2.07622 2.8090036 3.8884878 4294962176 340191
2.0640826 2.8295703 3.9283919 4294962688 344287
2.0708897 2.877008 4.0057511 4294963712 348383
2.0867145 2.9384346 4.1028948 4294964992 352479
2.1036205 3.0030997 4.2049274 4294966272 356575
2.0277715 2.9353054 4.1213498 4294964992 360671
1.9003395 2.78986 3.9277771 4294961664 364767
1.8508933 2.7563663 3.8909979 4294960896 368863
1.797774 2.7163446 3.8446069 4294960128 372959
1.8867631 2.8930368 4.1053243 4294963968 377055
1.7534918 2.7291188 3.8820946 4294960384 381151
1.8849169 2.9784565 4.2467923 4294965760 385247
1.8595492 2.9839277 4.2645025 4294965760 389343
1.7777258 2.8975532 4.1505542 4294963968 393439
1.6524892 2.7365222 3.9287341 4294960384 397535
1.5964339 2.6866813 3.8657448 4294959360 401631
1.7125945 2.9298105 4.2247829 4294964480 405727
1.6220379 2.821528 4.077384 4294962176 409823
1.8001693 3.1849151 4.6122093 4293787409 413919
1.6106045 2.8990881 4.2069812 4294963712 418015
1.5954845 2.9227016 4.249876 4294964224 422111
1.5258905 2.8455794 4.1460056 4294962688 426207
1.512506 2.8723738 4.1932807 4294963200 430303
1.4728271 2.8493009 4.1676545 4294962688 434399
1.4473182 2.8532844 4.1814189 4294962688 438495
1.4503103 2.9147012 4.279398 4294963968 442591
1.3981483 2.8655119 4.2148843 4294962944 446687
1.296687 2.7112546 3.9947093 4294959616 450783
1.3878183 2.961633 4.3707404 4294964992 454879
1.2958422 2.8235719 4.1736608 4294961920 458975
1.2620914 2.8091712 4.1588831 4294961664 463071
1.297828 2.9522021 4.3773413 4294964736 467167
1.2313472 2.86392 4.2527962 4294962688 471263
1.1619768 2.7647035 4.111465 4294960640 475359
1.1922275 2.9034245 4.3239298 4294963712 479455
1.134382 2.8291216 4.2191558 4294961920 483551
1.1124129 2.842833 4.2453833 4294962432 487647
1.0561366 2.7673452 4.1381516 4294960640 491743
1.104074 2.9680951 4.444129 4294964992 495839
1.0078133 2.7815647 4.1701293 4294960896 499935
1.0030084 2.8441472 4.2692308 4294962176 504031
0.94360793 2.7510822 4.1345105 4294960384 508127
0.90630895 2.7189269 4.0909739 4294959616 512223
0.87385029 2.6998062 4.0668306 4294959104 516319
0.87150419 2.7754056 4.1853333 4294960896 520415
0.82559842 2.7126806 4.0951328 4294959360 524511
0.83193642 2.8231285 4.2663002 4294961664 528607
0.80012101 2.8072042 4.2465067 4294961408 532703
0.74460202 2.7040811 4.0944943 4294959104 536799
0.7400012 2.7850955 4.2211328 4294960896 540895
0.72964972 2.8497641 4.3230658 4294962432 544991
0.71160239 2.8882687 4.3853083 4294963200 549087
0.68093872 2.8766186 4.3712831 4294962944 553183
0.6160838 2.7133904 4.1265583 4294959360 557279
0.5958578 2.7409458 4.1716781 4294959872 561375
0.57260519 2.7564948 4.1984386 4294960384 565471
0.55121005 2.7829385 4.2417011 4294960896 569567
0.51882076 2.753741 4.2000165 4294960128 573663
0.51409596 2.8761587 4.3895268 4294962688 577759
0.45019084 2.6625574 4.0659904 4294958336 581855
0.42780262 2.6834891 4.1002965 4294958592 585951
0.40925699 2.7327805 4.1778584 4294959872 590047
0.39082804 2.7897036 4.2670336 4294960896 594143
0.35478669 2.7200315 4.162425 4294959360 598239
0.33788934 2.7977235 4.2830715 4294961152 602335
0.29742002 2.6767802 4.0994406 4294958592 606431
0.29316902 2.8898089 4.4271979 4294962944 610527
0.25274017 2.7535377 4.2197366 4294960128 614623
0.22498295 2.7394981 4.1993918 4294959872 618719
0.19100873 2.6359205 4.0416183 4294957568 622815
0.18474592 2.9417236 4.5114803 4294964224 626911
0.14878687 2.7998984 4.2947726 4294961152 631007
0.12154853 2.7956161 4.2888689 4294961152 635103
0.093801595 2.7738473 4.2559996 4294960640 639199
0.067292474 2.7859085 4.2749028 4294960896 643295
0.041452035 2.8601904 4.3891587 4294962432 647391
0.012883783 2.6669431 4.0927343 4294958336 651487
-0.013390167 2.7717645 4.2535949 4294960640 655583
-0.039268266 2.7095103 4.1579299 4294959104 659679
-0.066290274 2.7444174 4.211236 4294959872 663775
-0.094946198 2.8076947 4.3079329 4294961408 667871
-0.1271026 2.9233596 4.4848452 4294963712 671967
-0.14977317 2.8184588 4.3232427 4294961664 676063
-0.16691926 2.6578681 4.0761547 4294958080 680159
-0.197733 2.7287154 4.1838994 4294959616 684255
-0.22749321 2.7700646 4.2462473 4294960640 688351
-0.24963415 2.7196984 4.1678786 4294959360 692447
-0.28907186 2.8494225 4.3653259 4294962176 696543
-0.3036049 2.7324443 4.184689 4294959616 700639
-0.33446231 2.7693481 4.2396312 4294960640 704735
-0.36418125 2.7920563 4.2726436 4294960896 708831
-0.38731191 2.7646055 4.2286444 4294960384 712927
-0.41252515 2.7546034 4.2112212 4294960128 717023
-0.43458623 2.7260408 4.1653147 4294959616 721119
-0.45959863 2.7181976 4.150959 4294959360 725215
-0.48582217 2.717978 4.1481152 4294959360 729311
-0.52519166 2.7875559 4.2515912 4294960896 733407
-0.52939063 2.6727772 4.0737953 4294958592 737503
-0.5601449 2.6965117 4.1070776 4294959104 741599
-0.6060515 2.7878368 4.2430458 4294960896 745695
-0.63564199 2.7995298 4.2575603 4294961152 749791
-0.66106671 2.7926695 4.2437148 4294961152 753887
-0.68608731 2.7847073 4.2280693 4294960896 757983
-0.71290505 2.7843649 4.223856 4294960896 762079
-0.75100493 2.8265095 4.2839007 4294961920 766175
-0.75180346 2.7302337 4.1340942 4294959872 770271
-0.79949987 2.8050251 4.2432103 4294961408 774367
-0.80753851 2.7403357 4.1411839 4294960128 778463
-0.83587492 2.7464461 4.1461062 4294960128 782559
-0.86192906 2.7449126 4.1393495 4294960128 786655
-0.89393884 2.7618706 4.1603212 4294960384 790751
-0.91392958 2.7417886 4.1253724 4294960128 794847
-0.92830116 2.7064555 4.0674419 4294959360 798943
-0.95465213 2.7070274 4.063406 4294959360 803039
-1.0074191 2.7804768 4.168498 4294960896 807135
-1.0336658 2.7788157 4.1607208 4294960896 811231
-1.0669283 2.7956221 4.1804357 4294961408 815327
-1.0890117 2.7830298 4.156075 4294961152 819423
-1.1112803 2.7715063 4.1332321 4294960896 823519
-1.1574179 2.8186529 4.1976838 4294961920 827615
-1.1715667 2.7875209 4.1453972 4294961152 831711
-1.1935171 2.775933 4.1221395 4294960896 835807
-1.2176237 2.7697594 4.1068268 4294960896 839903
-1.2586771 2.8015716 4.1476316 4294961408 843999
-1.2923554 2.8159742 4.1624303 4294961920 848095
-1.2871449 2.7467937 4.0536838 4294960384 852191
-1.3319639 2.7850156 4.1033869 4294961152 856287
-1.3626986 2.7928574 4.1080165 4294961408 860383
-1.3920498 2.7976146 4.1074896 4294961408 864479
-1.4291751 2.8175168 4.1290021 4294961920 868575
-1.4358593 2.7777839 4.0630474 4294961152 872671
-1.4799912 2.8106256 4.1031365 4294961920 876767
-1.4910461 2.7805996 4.0513296 4294961152 880863
-1.5103762 2.7667954 4.0231738 4294960896 884959
-1.5456632 2.7821939 4.0373511 4294961408 889055
-1.5995729 2.8300135 4.0982618 4294962432 893151
-1.6058704 2.7934046 4.0367432 4294961664 897247
-1.6291612 2.7870774 4.0189624 4294961408 901343
-1.7049823 2.8693604 4.1285939 4294963200 905439
-1.6753272 2.7743418 3.9830303 4294961152 909535
-1.7333242 2.825182 4.0468874 4294962432 913631
-1.7532315 2.8133249 4.0206842 4294962176 917727
-1.7906539 2.8295066 4.0344143 4294962432 921823
-1.8151881 2.8251424 4.0186853 4294962432 925919
-1.8262742 2.800287 3.9737091 4294961920 930015
-1.8798316 2.8403294 4.0200901 4294962688 934111
-1.9261594 2.868453 4.0492239 4294963456 938207
-1.9172183 2.8146396 3.9626637 4294962176 942303
-1.9206355 2.7802205 3.9036012 4294961664 946399
-1.9927647 2.8448434 3.9833376 4294962944 950495
-2.0431535 2.8770938 4.0172458 4294963712 954591
-2.0298514 2.8199947 3.9263701 4294962432 958687
-2.1111453 2.8940864 4.017962 4294963968 962783
-2.0436487 2.7649367 3.8274863 4294961408 966879
-2.138624 2.8560977 3.9420149 4294963200 970975
-2.1155427 2.7892823 3.8382821 4294961920 975071
-2.1942418 2.8566544 3.9190762 4294963456 979167
-2.199064 2.827368 3.8669817 4294962688 983263
-2.2489181 2.8559878 3.8939223 4294963456 987359
-2.2319875 2.8001297 3.8050139 4294962176 991455
-2.1361907 2.6478531 3.5859184 4294959104 995551
-2.0147955 2.4678264 3.3306625 4294955008 999647
-2.0279737 2.4549153 3.3017092 4294954752 1003743
-2.0301509 2.4291401 3.2555256 4294954240 1007839
-1.9866157 2.3498826 3.1380622 4294952704 1011935
-1.8922329 2.2129502 2.9445181 4294949632 1016031
-1.7703534 2.0472803 2.7141078 4294946048 1020127
-1.6743371 1.9148498 2.5291331 4294943232 1024223
-1.3825713 1.5638921 2.0575469 4294935552 1028319
-1.1567953 1.2943602 1.6961089 4294929664 1032415
-1.0676007 1.1817826 1.5423059 4294927360 1036511
-1.0045323 1.1002021 1.4299283 4294925568 1040607
-1.0293728 1.115603 1.4438999 4294925824 1044703
-1.0485214 1.1245799 1.4493765 4294926080 1048799
-1.0658098 1.1313981 1.4519355 4294926336 1052895
-0.99516988 1.0456861 1.3361386 4294924544 1056991
-0.97607374 1.0153129 1.2916427 4294923776 1061087
-0.9791922 1.0084218 1.2768983 4294923776 1065183
-0.99881983 1.018501 1.2835792 4294923776 1069279
-0.98180622 0.9913848 1.2435328 4294857728 1073375
-1.0373625 1.0373625 1.2952249 4294924288 1077471
-0.99424493 0.98473066 1.2237906 4294857728 1081567
-0.93085539 0.91320884 1.12924 4294528512 1085663
-0.91850615 0.89263272 1.0979627 4294462464 1089759
-0.93322432 0.89849967 1.0992687 4294462464 1093855
-0.93129927 0.88838226 1.0813047 4294462464 1097951
-0.92134726 0.87086248 1.0544757 4294396416 1102047
-0.83897787 0.78582996 0.9464187 4294001408 1106143
-0.82899499 0.76951551 0.92157161 4293935616 1110239
-0.75453281 0.69417024 0.82661778 4293606144 1114335
-0.77581912 0.70746499 0.83740491 4293671936 1118431
-0.84975964 0.76812333 0.90364599 4293935616 1122527
-1.1138312 0.99810851 1.1669483 4294923520 1126623
-1.199698 1.0658261 1.238333 4294925056 1130719
-1.178171 1.0377932 1.1981332 4294924544 1134815
-1.3196495 1.1526053 1.3221389 4294927104 1138911
-1.5019013 1.30081 1.4824395 4294930432 1143007
-1.5194589 1.3050954 1.4775289 4294930432 1147103
-1.5468924 1.3177232 1.4818753 4294930688 1151199
-1.5262101 1.2894918 1.44023 4294930176 1155295
-1.5325857 1.2843938 1.4242678 4294930176 1159391
-1.6683732 1.3869609 1.5268527 4294932480 1163487
-1.5197716 1.2533574 1.369157 4294929408 1167583
-1.5066017 1.2326741 1.3360339 4294928896 1171679
-1.5867219 1.2880449 1.3853573 4294930176 1175775
-1.6249927 1.3088462 1.39694 4294930688 1179871
-1.3457322 1.0755465 1.1386086 4294925568 1183967
-1.5743936 1.248657 1.3104737 4294929408 1188063
-1.6909753 1.3109808 1.3407301 4294930944 1200351
-1.8451874 1.4199026 1.4388639 4294933504 1204447
3.0876908 3.0015228 3.6190679 4294966784 213216
3.0990899 3.0408909 3.6853287 4294639364 217312
3.2237206 3.1931639 3.8904834 4293394199 221408
3.3006234 3.3006234 4.042573 4292476709 225504
3.1046295 3.1346259 3.858331 4293918479 229600
3.1554918 3.2170625 3.978128 4293197594 233696
3.0654163 3.1560197 3.9204862 4293721874 237792
2.9813201 3.0999796 3.8688607 4294246154 241888
2.7908731 2.9311178 3.6752777 4294964992 245984
3.0433261 3.2287064 4.0671835 4293197594 250080
2.9120271 3.1210957 3.948808 4294115084 254176
2.9502659 3.1948473 4.0594931 4293525269 258272
2.6512296 2.9010837 3.7018774 4294964224 262368
2.7678113 3.0607016 3.9219351 4294639364 266464
2.7659307 3.0913341 3.9775987 4294377224 270560
2.6614993 3.0067747 3.8846231 4294966528 274656
2.7980766 3.1956174 4.1452408 4293525269 278752
2.707217 3.126013 4.0710969 4294115084 282848
2.569628 3.0002918 3.9225948 4294966272 286944
2.4144144 2.8509188 3.7410204 4294962944 291040
2.4660769 2.9452002 3.8787811 4294964992 295136
2.6509106 3.2025452 4.232832 4293590804 299232
2.5287547 3.0907001 4.0994759 4294508294 303328
2.2950189 2.8382187 3.7777524 4294962688 307424
2.3656464 2.9605994 3.9542506 4294965248 311520
2.3725145 3.0051849 4.027442 4294966016 315616
2.2713494 2.9123437 3.9161096 4294963968 319712
2.2277365 2.8919065 3.9015019 4294963712 323808
2.1796641 2.8650932 3.8774974 4294962944 327904
2.3575897 3.1384475 4.2603717 4294180619 332000
2.0344045 2.7431648 3.7349653 4294960384 336096
2.1400709 2.9233649 3.9921064 4294964224 340192
2.0275846 2.806392 3.8435655 4294961664 344288
2.1168921 2.9693317 4.0784407 4294964992 348384
1.9999812 2.8435106 3.9167194 4294962432 352480
2.0564702 2.9641535 4.0943341 4294964992 356576
1.9039694 2.7827246 3.8543463 4294961152 360672
1.9587268 2.9033608 4.0323896 4294963712 364768
1.9764905 2.9718454 4.1385803 4294964992 368864
1.876 2.861927 3.9960127 4294962688 372960
1.8246415 2.8248153 3.9544384 4294961920 377056
1.8702561 2.9389737 4.1247759 4294964224 381152
1.8571056 2.9628632 4.1685829 4294964736 385248
1.8785679 3.0435715 4.2921119 4294966528 389344
1.8024676 2.9662657 4.1926875 4294964736 393440
1.7806128 2.9771845 4.2176189 4294964992 397536
1.8175899 3.0884252 4.3849249 4294770434 401632
1.6831677 2.9072895 4.1367688 4294963456 405728
1.5918965 2.7958519 3.9867539 4294961152 409824
1.6243334 2.901587 4.1462703 4294963200 413920
1.5928675 2.8948634 4.1452551 4294963200 418016
1.5497047 2.8662679 4.1126552 4294962432 422112
1.545952 2.9108465 4.1849651 4294963456 426208
1.4729288 2.8242395 4.0684199 4294961664 430304
1.4810182 2.8928299 4.1752605 4294962944 434400
1.4751568 2.9362643 4.2459893 4294963968 438496
1.3865026 2.8133886 4.0758929 4294961408 442592
1.4059254 2.9092913 4.2225451 4294963200 446688
1.3690802 2.8902805 4.2024827 4294962944 450784
1.3214034 2.8471477 4.1470523 4294961920 454880
1.3024838 2.8654644 4.1805429 4294962432 458976
1.2447228 2.7972803 4.087461 4294960896 463072
1.2507398 2.8725781 4.2039261 4294962432 467168
1.2767928 2.998311 4.394516 4294964992 471264
1.1959449 2.8730171 4.2170568 4294962432 475360
1.1732106 2.8847177 4.2402949 4294962688 479456
1.192067 3.0017109 4.4184203 4294965248 483552
1.1211007 2.8927164 4.2637839 4294962688 487648
1.0302062 2.7254822 4.022625 4294959360 491744
1.0775485 2.9247746 4.3223634 4294963456 495840
1.0497875 2.9254079 4.3287616 4294963456 499936
0.97521031 2.7920406 4.136508 4294960640 504032
0.95875371 2.8222468 4.1862912 4294961152 508128
0.93808889 2.8414576 4.2197199 4294961664 512224
0.93466377 2.9155929 4.3347397 4294963200 516320
0.91170698 2.9314885 4.3631859 4294963456 520416
0.87187511 2.8924112 4.3096356 4294962688 524512
0.84176552 2.8840818 4.3016872 4294962432 528608
0.78884059 2.7943676 4.1720653 4294960640 532704
0.81319666 2.9817209 4.4561172 4294964480 536800
0.76711905 2.9150524 4.3605733 4294963200 540896
0.70585072 2.7834489 4.1674819 4294960384 544992
0.70131445 2.8740141 4.3068347 4294962176 549088
0.67569977 2.8820665 4.3225274 4294962432 553184
0.64151424 2.8526909 4.28192 4294961920 557280
0.60362083 2.8034835 4.2113118 4294960640 561376
0.58251441 2.831291 4.2562299 4294961408 565472
0.55180484 2.8128588 4.2315078 4294960896 569568
0.5335651 2.8593616 4.3043447 4294961920 573664
0.50351977 2.8442063 4.284256 4294961664 577760
0.45753613 2.7321444 4.1179385 4294959104 581856
0.43577185 2.7598884 4.1621256 4294959872 585952
0.42637831 2.874615 4.3374681 4294962176 590048
0.40485695 2.9177623 4.404788 4294963200 594144
0.38165501 2.9542925 4.4620309 4294963968 598240
0.32521176 2.7187705 4.1081009 4294958848 602336
0.31060496 2.8224537 4.2664862 4294961152 606432
0.2828351 2.8148828 4.2566137 4294960896 610528
0.25290564 2.7819622 4.2082448 4294960128 614624
0.21876639 2.6895399 4.0696692 4294958336 618720
0.20687231 2.8824208 4.362699 4294962432 622816
0.17148307 2.7569201 4.1737285 4294959616 626912
0.14765619 2.8054676 4.2480817 4294960640 631008
0.12289973 2.8540049 4.3223042 4294961664 635104
0.098468579 2.9399905 4.453126 4294963456 639200
0.06693548 2.7979028 4.238337 4294960640 643296
0.040557008 2.8254714 4.2803864 4294961152 647392
0.013603407 2.843112 4.3072553 4294961408 651488
-0.013445258 2.8100591 4.2571807 4294960896 655584
-0.040082563 2.7924185 4.2303138 4294960384 659680
-0.06661918 2.7846818 4.2183094 4294960384 663776
-0.09429884 2.8154941 4.264554 4294960896 667872
-0.11488195 2.6678143 4.0403242 4294957824 671968
-0.15281676 2.9035184 4.3965521 4294962688 676064
-0.17655389 2.8384433 4.2971478 4294961408 680160
-0.20592354 2.8692012 4.3426905 4294962176 684256
-0.22037925 2.7093685 4.0996728 4294958592 688352
-0.25210452 2.7731497 4.1949148 4294960128 692448
-0.27475569 2.7344732 4.1350198 4294959360 696544
-0.31424132 2.8554971 4.3164353 4294961920 700640
-0.31164208 2.6053278 3.9366875 4294956544 704736
-0.36017135 2.7879932 4.2108598 4294960384 708832
-0.3907989 2.8164473 4.2518382 4294960896 712928
-0.4288283 2.8911326 4.3623915 4294962688 717024
-0.433164 2.743372 4.1372175 4294959360 721120
-0.47302395 2.8246288 4.2573328 4294961152 725216
-0.50312996 2.8420045 4.2809391 4294961664 729312
-0.50645036 2.7140543 4.0856061 4294958848 733408
-0.53668988 2.7358093 4.1155987 4294959360 737504
-0.56983382 2.7696574 4.1635771 4294960128 741600
-0.58916712 2.7363539 4.1104717 4294959360 745696
-0.61874884 2.7514577 4.1299677 4294959616 749792
-0.63674933 2.7159309 4.0733571 4294958848 753888
-0.703462 2.8828149 4.3200231 4294962432 757984
-0.69943517 2.7581499 4.1296034 4294959872 762080
-0.74136031 2.8171692 4.2141514 4294961152 766176
-0.76281232 2.7969785 4.1800237 4294960640 770272
-0.78759903 2.7899694 4.1654992 4294960640 774368
-0.81417191 2.7895398 4.160675 4294960640 778464
-0.84967655 2.8187683 4.1999092 4294961152 782560
-0.86078125 2.7677429 4.1194692 4294960128 786656
-0.91035938 2.8397777 4.2220221 4294961664 790752
-0.93156052 2.8216832 4.1903539 4294961152 794848
-0.9389779 2.7640336 4.0999427 4294960128 798944
-0.9721418 2.7832553 4.1234927 4294960384 803040
-1.0162983 2.8320847 4.19067 4294961408 807136
-1.0415561 2.827081 4.1779871 4294961408 811232
-1.0617325 2.8088872 4.1457253 4294961152 815328
-1.083681 2.7961645 4.121469 4294960896 819424
-1.1350011 2.8580148 4.2069044 4294962176 823520
-1.1415443 2.8068562 4.125845 4294961152 827616
-1.1726695 2.8171027 4.134985 4294961152 831712
-1.1955783 2.8075941 4.1149893 4294961152 835808
-1.2359494 2.8386092 4.1542134 4294961664 839904
-1.2700707 2.8542447 4.1706986 4294962176 844000
-1.2865543 2.8304195 4.1294146 4294961664 848096
-1.3249604 2.8548114 4.1582155 4294962176 852192
-1.3312303 2.810375 4.0862994 4294961152 856288
-1.3599162 2.8140841 4.0843616 4294961408 860384
-1.4086089 2.8582454 4.1408792 4294962176 864480
-1.4284484 2.8432927 4.1115475 4294961920 868576
-1.440151 2.8130052 4.0600481 4294961408 872672
-1.4592457 2.7980032 4.0306253 4294961152 876768
-1.5035813 2.8310673 4.0702658 4294961664 880864
-1.4965415 2.7679396 3.9715693 4294960384 884960
-1.5580113 2.831516 4.0545459 4294961920 889056
-1.5992731 2.8568213 4.0823016 4294962432 893152
-1.6441001 2.8875372 4.1174927 4294962944 897248
-1.6888529 2.9171097 4.1507416 4294963712 901344
-1.7007608 2.8899107 4.1030755 4294963200 905440
-1.6932287 2.8310785 4.0106382 4294961920 909536
-1.7256401 2.8398328 4.0139804 4294962176 913632
-1.7467623 2.8300257 3.9909649 4294961920 917728
-1.7847464 2.8474197 4.0061603 4294962432 921824
-1.8508571 2.9084899 4.0819926 4294963712 925920
-1.8162054 2.8117549 3.9361556 4294961664 930016
-1.8460468 2.816232 3.9322102 4294961664 934112
-1.8846279 2.8337212 3.946229 4294962176 938208
-1.8743778 2.7783332 3.8587425 4294960896 942304
-1.9515593 2.8522789 3.9506862 4294962432 946400
-1.9697946 2.8392212 3.9217675 4294962176 950496
-2.0167844 2.8674011 3.9496267 4294962944 954592
-2.0155165 2.8271339 3.8831289 4294962176 958688
-2.0981364 2.9040432 3.9773064 4294963712 962784
-2.1368952 2.9190269 3.9861825 4294963968 966880
-2.1228395 2.8624094 3.8973231 4294962944 970976
-2.150034 2.8621471 3.8853002 4294962944 975072
-2.1788404 2.8640101 3.8760316 4294962944 979168
-2.1660287 2.8118012 3.793431 4294961920 983264
-2.2215595 2.8485026 3.830265 4294962688 987360
-2.0736554 2.6266301 3.5201161 4294958080 991456
-2.0157881 2.5227528 3.3694518 4294955776 995552
-1.9542394 2.4167812 3.2168069 4294953472 999648
-1.9720134 2.4102385 3.1969178 4294953472 1003744
-1.8877629 2.2805922 3.0142787 4294950656 1007840
-1.8607383 2.2222531 2.9266713 4294949376 1011936
-1.7778164 2.0992296 2.754642 4294946816 1016032
-1.6335393 1.9073168 2.4936345 4294942720 1020128
-1.3925629 1.607987 2.0941279 4294936320 1024224
-1.1272453 1.2874004 1.6699698 4294929408 1028320
-1.0389707 1.1737561 1.5164423 4294926848 1032416
-1.0073243 1.125833 1.4486017 4294925824 1036512
-1.0156258 1.1230994 1.4391222 4294925824 1040608
-1.0317158 1.1289456 1.4405712 4294926080 1044704
-1.0667375 1.1551718 1.4678046 4294926592 1048800
-0.97802049 1.0482373 1.3262291 4294924288 1052896
-0.96219462 1.0208055 1.285903 4294923776 1056992
-0.94798809 0.99562573 1.2483977 4294857728 1061088
-0.97762561 1.0165361 1.2686653 4294923520 1065184
-0.97637641 1.0052348 1.2487277 4294923520 1069280
-0.98638648 1.005633 1.2435373 4294923520 1073376
-0.95718575 0.96643388 1.1895587 4294725888 1077472
-0.92738163 0.92738163 1.1358484 4294594048 1081568
-0.90989065 0.9012661 1.0980835 4294462464 1085664
-0.92999905 0.9125343 1.1059222 4294528256 1089760
-0.9578703 0.93113905 1.1227152 4294594304 1093856
-0.90078241 0.86757386 1.0406899 4294330624 1097952
-0.88836676 0.8478021 1.0115914 4294264832 1102048
-0.77992195 0.73757327 0.87517565 4293803520 1106144
-0.78193212 0.73284221 0.86466962 4293803520 1110240
-0.74382347 0.69092935 0.81039757 4293605888 1114336
-0.86547673 0.7968486 0.92896897 4294066944 1118432
-0.92263669 0.84205705 0.97565699 4294264576 1122528
-1.0803318 0.97744304 1.1255084 4294791936 1126624
-1.3681618 1.2272352 1.4042778 4294928384 1130720
-1.263311 1.1235405 1.2774439 4294926336 1134816
-1.4534181 1.2817063 1.4478832 4294929664 1138912
-1.2962977 1.1335825 1.2721967 4294926592 1143008
-1.6404792 1.4226562 1.5860637 4294932736 1147104
-1.4954655 1.2862234 1.4243249 4294929920 1151200
-1.6590645 1.4152836 1.5561229 4294932736 1155296
-1.581553 1.3382372 1.4608341 4294930944 1159392
-1.5518239 1.3025349 1.4111012 4294930176 1163488
-1.3353162 1.1118767 1.1952162 4294926080 1167584
-1.7109836 1.4134213 1.5077348 4294932736 1171680
-1.50086 1.2301166 1.3022294 4294928640 1175776
-1.6562926 1.3469461 1.4146208 4294931456 1179872
-1.4114369 1.1389588 1.1859628 4294926848 1183968
-1.6561146 1.3261607 1.3690169 4294930944 1188064
3.1808233 3.1509564 3.7635937 4293918479 217313
3.1972268 3.1972268 3.8382604 4293590804 221409
3.085247 3.1147709 3.7589996 4294246154 225505
3.2849047 3.3483813 4.0619907 4292345639 229601
2.9308555 3.0166366 3.6775753 4294966528 233697
3.1017723 3.2240098 3.9483995 4293394199 237793
3.0732493 3.2261472 3.9689045 4293394199 241889
2.8791263 3.0527418 3.7729099 4294835969 245985
2.895139 3.1008849 3.8502109 4294442759 250081
2.78511 3.0136318 3.7590437 4294966272 254177
2.6708889 2.9199874 3.6580524 4294964224 258273
2.618212 2.8923702 3.6388714 4294963456 262369
2.7000887 3.0143847 3.8083138 4294966016 266465
2.6777477 3.0214159 3.833041 4294966272 270561
2.5057352 2.8578925 3.6404548 4294962688 274657
2.5882502 2.9842665 3.8168263 4294965248 278753
2.5043187 2.9193993 3.7487512 4294963968 282849
2.3864601 2.8130896 3.6264672 4294961664 286945
2.4639986 2.9373093 3.8013322 4294964224 291041
2.5539317 3.0793118 3.999615 4294770434 295137
2.3179638 2.8271122 3.6852355 4294961920 299233
2.3285255 2.87321 3.7586117 4294962688 303329
2.4875443 3.1057506 4.0770388 4294639364 307425
2.313354 2.9228604 3.8502159 4294963712 311521
2.0938187 2.6775501 3.5391097 4294958592 315617
2.2177978 2.8708916 3.8074186 4294962688 319713
2.0223379 2.6503932 3.5266378 4294957824 323809
2.0433316 2.711591 3.6198673 4294959104 327905
2.3080766 3.1019375 4.1540813 4294704899 332001
2.2138882 3.0137444 4.0481062 4294965504 336097
2.0657387 2.848829 3.837935 4294962176 340193
2.1368051 2.9858668 4.0343142 4294964992 344289
2.1156173 2.9959412 4.0595984 4294964992 348385
2.1812365 3.1308904 4.2545218 4294508294 352481
2.0274065 2.9502261 4.0202584 4294963968 356577
1.9779464 2.9185083 3.9880278 4294963456 360673
1.9539691 2.9240248 4.0064502 4294963456 364769
1.9334797 2.9349945 4.0322781 4294963712 368865
1.8322182 2.8218834 3.8871367 4294961408 372961
1.9164178 2.99529 4.1367383 4294964992 377057
1.7896503 2.8392196 3.931227 4294961664 381153
1.8486023 2.9775198 4.133111 4294964480 385249
1.6126174 2.637692 3.6704834 4294957312 389345
1.6629919 2.7629235 3.8537431 4294959872 393441
1.6791378 2.8343847 3.9623439 4294961408 397537
1.7459047 2.995007 4.1961884 4294964736 401633
1.652476 2.8815904 4.0461073 4294962432 405729
1.6692053 2.9596834 4.164691 4294963968 409825
1.6801898 3.030086 4.2727675 4294965504 413921
1.5360883 2.818388 3.9825051 4294960896 418017
1.6031281 2.9934516 4.2385125 4294964736 422113
1.485323 2.8234518 4.0058179 4294961152 426209
1.4732437 2.8518753 4.0540843 4294961664 430305
1.4662145 2.8913202 4.1180778 4294962432 434401
1.3139915 2.6404974 3.767947 4294957056 438497
1.399786 2.8675227 4.0995045 4294961920 442593
1.4152461 2.9566033 4.2345719 4294963712 446689
1.4342051 3.05674 4.3858433 4294965760 450785
1.3004338 2.8287787 4.0658979 4294961152 454881
1.2714247 2.8239012 4.0658803 4294960896 458977
1.2322657 2.7957857 4.0321937 4294960384 463073
1.2523174 2.9037251 4.194531 4294962688 467169
1.2064768 2.8602991 4.1379986 4294961664 471265
1.1628072 2.8201418 4.0858879 4294960896 475361
1.2607291 3.1295743 4.5407019 4294770434 479457
1.1638964 2.9588211 4.2989688 4294963712 483553
1.1131796 2.8997641 4.218924 4294962432 487649
1.1033642 2.94696 4.2932906 4294963456 491745
1.092654 2.9941556 4.3676982 4294964480 495841
1.0085975 2.8375208 4.1444345 4294961152 499937
0.93207878 2.6940906 3.939781 4294958080 504033
0.96080178 2.8553405 4.1805859 4294961408 508129
0.87338918 2.6707988 3.9149439 4294957568 512225
0.90667331 2.8553443 4.1901975 4294961408 516321
0.88762403 2.8813641 4.2330456 4294961920 520417
0.85582596 2.8663375 4.2154751 4294961664 524513
0.81019545 2.8024793 4.1258335 4294960384 528609
0.82253349 2.9416029 4.3349996 4294963200 532705
0.73782098 2.7312319 4.0288858 4294958848 536801
0.7097224 2.722753 4.020144 4294958592 540897
0.71997356 2.8663099 4.2359333 4294961664 544993
0.6915555 2.8611414 4.2319789 4294961408 549089
0.66013712 2.8426313 4.2081237 4294961152 553185
0.63450587 2.8485262 4.2202444 4294961152 557281
0.60923308 2.856626 4.2355103 4294961408 561377
0.60190958 2.9535563 4.3824615 4294963456 565473
0.54375815 2.7983651 4.1551175 4294960128 569569
0.51399869 2.7808647 4.1319056 4294959616 573665
0.49820381 2.8411083 4.224112 4294960896 577761
0.48310891 2.9124565 4.3328109 4294962432 581857
0.43121168 2.7571414 4.104095 4294959104 585953
0.41098532 2.7973516 4.1661901 4294960128 590049
0.36555877 2.6597552 3.9632611 4294957056 594145
0.36539888 2.8555248 4.256969 4294961152 598241
0.31636256 2.6701 3.9822738 4294957312 602337
0.31602761 2.8992097 4.3257136 4294962176 606433
0.27805263 2.793767 4.1699257 4294959872 610529
0.24447663 2.7149773 4.0536842 4294958336 614625
0.22143824 2.7484396 4.1048837 4294959104 618721
0.21206863 2.9830987 4.4565501 4294963968 622817
0.18311386 2.9720788 4.4411287 4294963712 626913
0.14474644 2.7765 4.1497135 4294959616 631009
0.11255155 2.6387086 3.9444339 4294956800 635105
0.093111031 2.8066325 4.1960154 4294960128 639201
0.064137712 2.7066116 4.0468879 4294958080 643297
0.03968434 2.791132 4.1735415 4294959872 647393
0.013428401 2.8333926 4.2368755 4294960896 651489
-0.013038485 2.7511203 4.1138506 4294959104 655585
-0.03843556 2.7033012 4.0422091 4294958080 659681
-0.067799717 2.8611481 4.2779484 4294961408 663777
-0.09325856 2.8110795 4.2026639 4294960384 667873
-0.12326849 2.889961 4.320015 4294961920 671969
-0.13727005 2.6330891 3.935374 4294956544 676065
-0.17605916 2.8575757 4.2700286 4294961408 680161
-0.19389245 2.7274203 4.0745835 4294958592 684257
-0.22475198 2.7895687 4.1663117 4294959872 688353
-0.2475795 2.7494357 4.1051331 4294959104 692449
-0.29055309 2.9193668 4.3573942 4294962688 696545
-0.29531044 2.7091522 4.0421419 4294958080 700641
-0.31781104 2.6823254 4.0005069 4294957568 704737
-0.36326581 2.838855 4.2321177 4294960896 708833
-0.39411923 2.8675573 4.2729039 4294961408 712929
-0.41882139 2.8506875 4.245625 4294961152 717025
-0.43972644 2.8115842 4.1851354 4294960384 721121
-0.46265304 2.7891369 4.1493502 4294959872 725217
-0.48924297 2.7900071 4.1481357 4294959872 729313
-0.50701809 2.743098 4.0757904 4294958848 733409
-0.52886659 2.7217281 4.0413237 4294958592 737505
-0.53831244 2.6414866 3.9194152 4294956800 741601
-0.60070735 2.8166499 4.1762376 4294960384 745697
-0.62065578 2.7863483 4.1281242 4294959872 749793
-0.66323096 2.8559537 4.2278457 4294961408 753889
-0.67840856 2.8067493 4.151526 4294960384 757985
-0.70352501 2.8008261 4.1391587 4294960128 762081
-0.73893857 2.8348372 4.185636 4294960896 766177
-0.75760412 2.8044643 4.1369119 4294960384 770273
-0.78934056 2.822896 4.1600628 4294960640 774369
-0.82238126 2.8446302 4.1878881 4294961152 778465
-0.83827561 2.8075581 4.1290293 4294960384 782561
-0.87361884 2.835901 4.166255 4294960896 786657
-0.90139276 2.8387144 4.1657929 4294961152 790753
-0.92232364 2.8204391 4.1342912 4294960640 794849
-0.95297068 2.8320677 4.1465116 4294960896 798945
-0.98497897 2.8469939 4.1633835 4294961152 803041
-1.0034786 2.8231201 4.1234007 4294960896 807137
-1.0372837 2.8424268 4.1463647 4294961152 811233
-1.0469834 2.7963734 4.0739074 4294960128 815329
-1.088532 2.8355584 4.1255102 4294961152 819425
-1.097724 2.7905993 4.054554 4294960128 823521
-1.1644528 2.8905828 4.1939487 4294962176 827617
-1.1509489 2.7913818 4.04422 4294960128 831713
-1.2092755 2.8669341 4.1475978 4294961920 835809
-1.2384902 2.8716643 4.1482177 4294961920 839905
-1.267341 2.8753653 4.1469665 4294961920 844001
-1.2853553 2.8548419 4.1104293 4294961664 848097
-1.3324304 2.8983796 4.1659374 4294962432 852193
-1.3352228 2.845778 4.0831528 4294961408 856289
-1.3956891 2.9157465 4.176055 4294962944 860385
-1.3744578 2.8156369 4.0253267 4294960896 864481
-1.4282279 2.8700578 4.0955262 4294961920 868577
-1.4438339 2.8471866 4.0552182 4294961408 872673
-1.4966059 2.8970995 4.1183729 4294962688 876769
-1.5149076 2.8796892 4.0856056 4294962176 880865
-1.5399593 2.8754992 4.0715008 4294962176 884961
-1.5649182 2.8712845 4.05725 4294962176 889057
-1.6001662 2.8857698 4.0692654 4294962432 893153
-1.6263494 2.8836954 4.057765 4294962432 897249
-1.6777288 2.925626 4.1079392 4294963200 901345
-1.6862431 2.8926609 4.0527949 4294962688 905441
-1.7306231 2.9212918 4.0838366 4294963200 909537
-1.7318282 2.8772893 4.0132613 4294962432 913633
-1.7994511 2.9432881 4.095736 4294963712 917729
-1.786516 2.8775182 3.9942985 4294962432 921825
-1.8478165 2.9314983 4.0589976 4294963456 925921
-1.8166447 2.8393483 3.9213703 4294961664 930017
-1.876411 2.8899469 3.9808936 4294962688 934113
-1.9052854 2.8921959 3.9734786 4294962688 938209
-1.9356427 2.8966 3.9688735 4294962944 942305
-1.9467332 2.8724525 3.9250946 4294962432 946401
-1.9746782 2.8734972 3.9157004 4294962432 950497
-1.9850588 2.8493021 3.8718755 4294961920 954593
-2.0676668 2.9280384 3.9675879 4294963712 958689
-2.0592456 2.8774889 3.8878806 4294962688 962785
-2.1379423 2.9484041 3.9720821 4294964224 966881
-2.0756958 2.8256247 3.7954211 4294961664 970977
-2.1510868 2.8909512 3.8715305 4294962944 975073
-2.1495535 2.8525522 3.8080451 4294962176 979169
-2.1665227 2.8393559 3.7780733 4294961920 983265
-2.0701976 2.6798263 3.5540249 4294958592 987361
-2.0758972 2.6546323 3.5088179 4294958080 991457
-2.0111804 2.5410724 3.3472953 4294955776 995553
-2.0159719 2.5169826 3.3041406 4294955264 999649
-1.8931139 2.3359475 3.0557876 4294951424 1003745
-1.9241199 2.3467591 3.0590792 4294951680 1007841
-1.6681594 2.0113235 2.6124408 4294944512 1011937
-1.6133053 1.9232057 2.4889257 4294942720 1016033
-1.2829586 1.5123144 1.9495854 4294934016 1020129
-1.1101812 1.2941891 1.6618464 4294929152 1024225
-1.0012801 1.1544814 1.4765621 4294926336 1028321
-1.0383828 1.1843176 1.5086133 4294926848 1032417
-1.0057788 1.1348627 1.4397141 4294925824 1036513
-1.0500075 1.1722306 1.4809729 4294926592 1040609
-0.99575484 1.1000223 1.3839307 4294925056 1044705
-0.98380303 1.0755566 1.3474177 4294924544 1048801
-0.95339346 1.0316206 1.2867886 4294923776 1052897
-0.95055968 1.0181122 1.264138 4294923520 1056993
-0.94236153 0.99918735 1.2349042 4294857472 1061089
-1.007935 1.0580812 1.3016835 4294924288 1065185
-0.98298162 1.0217198 1.251286 4294923520 1069281
-0.92484301 0.95191163 1.1604735 4294659840 1073377
-0.90262091 0.92006284 1.1161474 4294528256 1077473
-0.95575875 0.96490479 1.1644763 4294725888 1081569
-0.95361561 0.95361561 1.1448125 4294660096 1085665
-0.95658541 0.9476034 1.131845 4294659840 1089761
-0.91553688 0.8985036 1.0677286 4294396672 1093857
-0.865888 0.84194642 0.99528348 4294198784 1097953
-0.80302006 0.77368599 0.90955472 4293935360 1102049
-0.74005419 0.70656759 0.82601881 4293606144 1106145
-0.77129006 0.72978568 0.84817773 4293737728 1110241
-0.80409014 0.75405788 0.87112612 4293803776 1114337
-0.97232813 0.90379399 1.0377666 4294462464 1118433
-1.2316065 1.1347989 1.2950158 4294926080 1122529
-1.2239615 1.1179909 1.2679052 4294925824 1126625
-1.3413202 1.214672 1.3688657 4294927872 1130721
-1.4805894 1.3293803 1.4885658 4294930432 1134817
-1.64463 1.4642063 1.6289301 4294933504 1138913
-1.4333994 1.2654698 1.3986113 4294929152 1143009
-1.5052472 1.317872 1.4468604 4294930176 1147105
-1.6235691 1.4097657 1.5368906 4294932224 1151201
-1.8969338 1.6336858 1.7683148 4294937088 1155297
-1.3250147 1.1318952 1.2160486 4294926336 1159393
-1.739414 1.4739612 1.5713811 4294933760 1163489
-1.7141411 1.4409713 1.5244682 4294932992 1167585
-1.7493141 1.458914 1.5318273 4294933504 1171681
-1.4228232 1.1773164 1.226617 4294927360 1175777
-1.5183578 1.2465894 1.287791 4294928896 1179873
-1.3429368 1.0940527 1.1205082 4294925568 1183969
-1.6641694 1.345363 1.3664038 4294931200 1188065
-1.4946581 1.1991364 1.2075986 4294927872 1192161
3.1471469 3.1471469 3.7049444 4294180619 217314
3.2317641 3.2623968 3.8601127 4293263129 221410
3.1829238 3.2438412 3.8574619 4293459734 225506
2.9403439 3.0255711 3.6167037 4294966016 229602
2.9752548 3.0913622 3.7144263 4294704899 233698
2.9572453 3.1029224 3.7465744 4294639364 237794
2.9311175 3.1061096 3.767447 4294639364 241890
2.9018195 3.1059675 3.784163 4294639364 245986
2.7824047 3.0083869 3.6819715 4294965504 250082
2.6465411 2.8908372 3.5543721 4294962944 254178
2.7861381 3.074857 3.7978036 4294966784 258274
2.8382535 3.1651728 3.9262409 4294246154 262370
2.7256236 3.0717344 3.8263812 4294966784 266466
2.7761285 3.1621141 3.9553471 4294246154 270562
2.7050631 3.1144781 3.9117625 4294639364 274658
2.7214513 3.1675909 3.9946103 4294246154 278754
2.394793 2.8181818 3.5682123 4294961152 282850
2.6055393 3.1004462 3.9410911 4294835969 286946
2.350467 2.8285282 3.6094518 4294961408 291042
2.5767069 3.1362205 4.0174899 4294573829 295138
2.5244555 3.1081445 3.9960244 4294770434 299234
2.4833124 3.0932486 3.9910026 4294901504 303330
2.2783206 2.8714926 3.7178793 4294962176 307426
2.3352761 2.9785259 3.8698111 4294964480 311522
2.1847148 2.8202682 3.6767156 4294961152 315618
2.2300153 2.9140692 3.8118124 4294962944 319714
2.3827069 3.1522768 4.1371126 4294508294 323810
2.0183401 2.703814 3.5601571 4294958592 327906
2.2083941 2.9961014 3.9577596 4294964736 332002
2.0807638 2.8593721 3.7891822 4294961664 336098
1.9859064 2.7646933 3.6746058 4294959872 340194
2.0360177 2.8719985 3.8284013 4294961920 344290
2.0578761 2.9417958 3.932761 4294963456 348386
2.0196977 2.9265008 3.9234474 4294962944 352482
2.080389 3.0560195 4.108583 4294965760 356578
2.059221 3.0672312 4.1350608 4294966016 360674
1.7689452 2.6722364 3.6123714 4294957568 364770
1.9735639 3.0242381 4.099195 4294964992 368866
1.9501657 3.0320096 4.1206064 4294965248 372962
1.9518818 3.0796356 4.1962461 4294966016 377058
1.9589293 3.1372325 4.2857075 4294770434 381154
1.7753366 2.886616 3.9532869 4294962176 385250
1.870387 3.0883133 4.240016 4294966272 389346
1.7996356 3.0182867 4.1540027 4294964736 393442
1.7190857 2.929322 4.0412445 4294962944 397538
1.7428702 3.018141 4.1730323 4294964736 401634
1.6791997 2.9559467 4.095973 4294963456 405730
1.5967907 2.8581212 3.9689329 4294961408 409826
1.4954069 2.7224073 3.7884638 4294958592 413922
1.5945916 2.9534609 4.1185331 4294963200 418018
1.5856594 2.9888978 4.1764579 4294963968 422114
1.461846 2.8051639 3.9275832 4294960128 426210
1.4501805 2.8338392 3.975548 4294960640 430306
1.3786978 2.7445107 3.8576696 4294958848 434402
1.398878 2.837724 3.9962323 4294960896 438498
1.4641778 3.027863 4.2719078 4294964736 442594
1.4123621 2.9785459 4.2099771 4294963712 446690
1.2972207 2.7909901 3.9519203 4294959872 450786
1.3403674 2.9432812 4.1748619 4294962944 454882
1.3518304 3.030946 4.3066101 4294964736 458978
1.3144225 3.0104516 4.2847028 4294964224 463074
1.2716658 2.9765365 4.2434263 4294963456 467170
1.1735886 2.8087008 4.0106254 4294960128 471266
1.1602244 2.8405495 4.0624423 4294960640 475362
1.2020069 3.0120878 4.3139443 4294964224 479458
1.1644561 2.9883032 4.2858715 4294963712 483554
1.1235154 2.9544294 4.2430816 4294962944 487650
1.0765666 2.9026415 4.1742649 4294961920 491746
1.0208788 2.8239894 4.0664377 4294960384 495842
1.0063918 2.8581526 4.1208453 4294960896 499938
1.0000749 2.9180267 4.2123404 4294962176 504034
0.96505618 2.8951685 4.1843405 4294961664 508130
0.90727186 2.8007088 4.0525265 4294959872 512226
0.89240634 2.8370531 4.1097531 4294960384 516322
0.88743907 2.9080696 4.2172484 4294961920 520418
0.86558527 2.9265025 4.2484946 4294962432 524514
0.81261337 2.837486 4.1235147 4294960384 528610
0.80780256 2.9163041 4.2423043 4294962176 532706
0.76855975 2.8719864 4.1818862 4294961152 536802
0.77206117 2.9899824 4.3577757 4294963712 540898
0.71232939 2.8627579 4.1761193 4294960896 544994
0.71879512 3.0020268 4.3830914 4294963712 549090
0.66055 2.8713706 4.1958356 4294961152 553186
0.63638729 2.884053 4.2177544 4294961408 557282
0.6020419 2.8496649 4.1706743 4294960640 561378
0.603625 2.9900496 4.3793616 4294963456 565474
0.53052855 2.7561607 4.0396385 4294958592 569570
0.52316862 2.8573058 4.1906919 4294960896 573666
0.50320137 2.8968079 4.2513356 4294961664 577762
0.48285919 2.9385431 4.3151894 4294962432 581858
0.44019538 2.8412611 4.1747127 4294960384 585954
0.40522793 2.784308 4.0932269 4294959360 590050
0.38353896 2.8170276 4.143414 4294959872 594146
0.36208707 2.8564646 4.2033949 4294960640 598242
0.32870623 2.8005772 4.1229534 4294959616 602338
0.30242726 2.8007393 4.1248541 4294959616 606434
0.25856349 2.6225724 3.8638823 4294955776 610530
0.2452544 2.7494309 4.0521464 4294958592 614626
0.2174782 2.724874 4.017169 4294958080 618722
0.20422184 2.8999503 4.2764263 4294961664 622818
0.1680986 2.7542307 4.0624962 4294958592 626914
0.14351571 2.778986 4.0998373 4294959104 631010
0.11737731 2.7779298 4.098968 4294959104 635106
0.096529953 2.9372685 4.3346629 4294962432 639202
0.06673903 2.8430827 4.1960921 4294960384 643298
0.040691573 2.8891017 4.264298 4294961408 647394
0.013785115 2.9362295 4.3340039 4294962432 651490
-0.013205797 2.812835 4.1518683 4294959872 655586
-0.039538208 2.8072128 4.1434307 4294959616 659682
-0.066818029 2.8464479 4.2010589 4294960640 663778
-0.09586639 2.9170773 4.3048658 4294961920 667874
-0.11633459 2.753252 4.0625548 4294958592 671970
-0.14229923 2.7554305 4.0650859 4294958592 676066
-0.1741229 2.8529367 4.2080879 4294960640 680162
-0.18968818 2.693572 3.9720898 4294957312 684258
-0.21443467 2.6867404 3.9609501 4294957312 688354
-0.25886017 2.9019589 4.2769442 4294961664 692450
-0.27713892 2.8109806 4.1414671 4294959872 696546
-0.29443517 2.7267258 4.0158491 4294958080 700642
-0.34686899 2.9553237 4.3507681 4294962688 704738
-0.35682812 2.8149774 4.1423445 4294959872 708834
-0.37773818 2.7744219 4.0807471 4294959104 712930
-0.40734911 2.7988825 4.1146531 4294959616 717026
-0.43342182 2.7975407 4.1104736 4294959616 721122
-0.45651975 2.7782488 4.0798006 4294959104 725218
-0.47808513 2.7522197 4.0391388 4294958592 729314
-0.49649206 2.7116106 3.9770072 4294957824 733410
-0.52535164 2.7292657 4.0002193 4294958080 737506
-0.55906284 2.7693114 4.0560589 4294959104 741602
-0.6048823 2.8631096 4.190351 4294960896 745698
-0.62625253 2.8381231 4.1505847 4294960384 749794
-0.66596121 2.8948925 4.2302074 4294961664 753890
-0.67883974 2.8351543 4.1394501 4294960384 757986
-0.71344393 2.8672371 4.1826534 4294961152 762082
-0.72696042 2.8153193 4.1032119 4294959872 766178
-0.75897336 2.8361635 4.1297245 4294960384 770274
-0.78175944 2.822284 4.1055346 4294960128 774370
-0.81645936 2.8509154 4.1430302 4294960640 778466
-0.83447647 2.8213253 4.0958056 4294960128 782562
-0.87344217 2.8622029 4.150733 4294960896 786658
-0.88572162 2.8158016 4.0789685 4294960128 790754
-0.92502242 2.855504 4.131813 4294960896 794850
-0.92555201 2.7766562 4.0130568 4294959360 798946
-0.96138209 2.8051286 4.0493655 4294959872 803042
-0.98710996 2.8033924 4.0418925 4294959872 807138
-1.0350156 2.863095 4.1227484 4294961152 811234
-1.0517083 2.8356187 4.0778799 4294960640 815330
-1.0916637 2.8706713 4.1227899 4294961408 819426
-1.1105078 2.8498576 4.0873108 4294960896 823522
-1.1454366 2.8703294 4.1109161 4294961408 827618
-1.1584013 2.836086 4.0560589 4294960640 831714
-1.1889724 2.8455181 4.0631976 4294960896 835810
-1.2297297 2.8783782 4.1034894 4294961408 839906
-1.2822862 2.9368491 4.1799459 4294962688 844002
-1.2906661 2.8938091 4.1117554 4294961920 848098
-1.3220931 2.9031529 4.1179428 4294962176 852194
-1.3288161 2.8589678 4.0481739 4294961152 856290
-1.3685147 2.8860755 4.0792766 4294961664 860386
-1.3882356 2.8708172 4.0503378 4294961408 864482
-1.4109539 2.8622208 4.0307298 4294961408 868578
-1.4066576 2.8001688 3.9359026 4294960128 872674
-1.4689734 2.8705628 4.0270667 4294961408 876770
-1.4879348 2.8552263 3.9976771 4294961152 880866
-1.5095478 2.8454309 3.9759877 4294960896 884962
-1.5501723 2.8711889 4.0038066 4294961664 889058
-1.6034644 2.9191275 4.0622168 4294962688 893154
-1.5992736 2.8625653 3.9751041 4294961408 897250
-1.661534 2.924849 4.0528822 4294962688 901346
-1.6588842 2.8727019 3.9719405 4294961664 905442
-1.7190857 2.929322 4.0412445 4294962944 909538
-1.7407614 2.9195447 4.0181065 4294962688 913634
-1.7602259 2.9064195 3.9902897 4294962432 917730
-1.7821556 2.8977034 3.9684713 4294962176 921826
-1.8004432 2.8834167 3.9389749 4294961920 925922
-1.8437365 2.9090064 3.9637506 4294962688 930018
-1.839033 2.8592265 3.8857882 4294961664 934114
-1.907092 2.9223785 3.9611292 4294962944 938210
-1.9147394 2.8924787 3.9100983 4294962176 942306
-1.954496 2.9112422 3.9247653 4294962688 946402
-1.9802653 2.9089413 3.9108479 4294962688 950498
-1.9861314 2.8778639 3.8582418 4294962176 954594
-2.1127527 3.0202439 4.0376344 4294964992 958690
-2.033669 2.8686852 3.8239849 4294961920 962786
-2.0628211 2.8717706 3.8169243 4294961920 966882
-2.1000338 2.8858531 3.8242741 4294962432 970978
-2.1140912 2.8681619 3.7887554 4294961920 975074
-2.0882926 2.7975242 3.6835468 4294960640 979170
-1.9995412 2.6453557 3.4718192 4294957312 983266
-1.999048 2.612253 3.4170148 4294956544 987362
-1.9279904 2.4888604 3.2446675 4294953984 991458
-1.8581258 2.3699448 3.0791199 4294951680 995554
-1.8925638 2.3853023 3.088382 4294951936 999650
-1.7754338 2.2115052 2.8533504 4294948352 1003746
-1.7176293 2.114769 2.7188787 4294946304 1007842
-1.5110123 1.8391179 2.3559048 4294940416 1011938
-1.2904078 1.5528636 1.9815912 4294934528 1016034
-1.0388038 1.2361184 1.5712756 4294927872 1020130
-0.98932588 1.1642343 1.4740834 4294926336 1024226
-0.96303308 1.1209073 1.4135625 4294925312 1028322
-0.9854328 1.1345794 1.4250238 4294925568 1032418
-1.0551691 1.2018771 1.5033743 4294927104 1036514
-1.0474203 1.180426 1.4704266 4294926592 1040610
-0.93235177 1.0397431 1.2897501 4294923776 1044706
-0.94654399 1.0446315 1.2902405 4294923776 1048802
-0.92986584 1.0156996 1.2488334 4294857728 1052898
-0.95305818 1.0304639 1.2611872 4294923520 1056994
-0.96523356 1.0331395 1.2587279 4294923520 1061090
-0.94032514 0.99646395 1.2086262 4294791680 1065186
-0.88982284 0.93365645 1.1273286 4294528256 1069282
-0.89912987 0.93421787 1.1225095 4294528256 1073378
-0.89898223 0.92503965 1.1057729 4294462464 1077474
-0.93602842 0.95394284 1.1343954 4294594304 1081570
-0.94652599 0.9554978 1.1305581 4294594304 1085666
-0.86789739 0.86789739 1.0217227 4294264832 1089762
-0.87874818 0.87057376 1.0195645 4294264832 1093858
-0.80012375 0.78537494 0.91476613 4293935360 1097954
-0.75122041 0.73063904 0.84631169 4293737728 1102050
-0.71376979 0.68793201 0.79223937 4293540096 1106146
-0.84121186 0.80348939 0.91981322 4294001408 1110242
-0.87113589 0.82467532 0.93838263 4294067200 1114338
-1.1390109 1.0687636 1.2087281 4294924544 1118434
-1.1227252 1.0442815 1.1737654 4294924032 1122530
-1.2665845 1.1678896 1.3044993 4294926592 1126626
-1.4479992 1.3237075 1.4691827 4294930176 1130722
-1.5439397 1.3994007 1.5432358 4294931712 1134818
-1.5487323 1.3918986 1.5249943 4294931456 1138914
-1.531589 1.3649727 1.485656 4294930944 1143010
-1.6042532 1.4178669 1.5325514 4294932224 1147106
-1.7969087 1.5750682 1.6904461 4294935552 1151202
-1.7275871 1.5019431 1.6001433 4294934016 1155298
-1.6096963 1.3881186 1.467615 4294931712 1159394
-1.7823045 1.524622 1.5996373 4294934528 1163490
-1.5232564 1.2926439 1.3461213 4294929664 1167586
-1.4334807 1.2068435 1.2472621 4294927872 1171682
-1.8595016 1.5532308 1.5918319 4294935296 1175778
-1.697088 1.406536 1.4292228 4294932224 1179874
